-8.716345 2.162719 31.972008
-10.480173 2.487956 28.516651
-10.240338 0.409830 32.042618
-8.674327 0.800062 32.507481
-8.422118 2.656873 28.806076
3.083229 -7.259783 4.791343
2.503399 -5.652722 9.717828
-3.933829 -2.560949 4.426437
-7.611424 -10.358126 4.256845
-0.694366 -4.330349 6.349957
2.244945 -5.483711 10.015395
2.413547 -5.370834 10.278475
0.116966 -4.308681 6.357854
0.697969 -6.114260 4.566277
-6.597381 -10.069934 4.652325
-3.463835 -0.465082 5.794853
0.525672 -8.321530 3.602402
-2.599158 2.322803 32.068161
-2.591255 2.965338 30.128963
-4.194642 1.649011 32.396694
-3.872354 0.269943 32.536919
-1.542354 2.458082 30.614397
-1.741053 2.701924 31.334284
-0.942922 0.645724 31.420168
-1.000027 0.802049 32.155785
-1.440565 3.002496 30.467758
-3.383852 2.982520 30.132412
-4.878026 2.917233 30.440033
-0.628110 1.574349 28.790041
-3.173987 0.665484 32.581039
1.111791 -0.408897 16.150528
-1.534125 2.139975 22.037237
1.051267 -1.057116 16.580488
0.661126 1.608369 16.471016
1.063422 -0.411136 16.231697
1.112472 0.083969 15.899652
-1.246835 1.529357 16.205278
0.857950 -0.284016 16.953218
0.666084 0.480839 18.430407
0.404009 0.763011 20.218462
-0.927440 1.588849 16.317524
-10.055328 -7.329799 44.923985
-3.480563 1.500049 15.944374
-4.917164 2.203250 23.079775
1.054848 -0.239855 16.304646
1.047185 -0.297110 16.365719
-0.965292 1.538585 15.668311
-7.412901 2.049056 32.786423
-0.772769 -2.111079 37.980427
-10.463152 -6.579111 37.763962
-10.375033 -2.597340 36.916012
-4.153955 2.403963 25.173752
-2.351234 2.572963 25.979946
0.379142 0.209533 21.744757
0.026121 0.211955 23.547682
0.000517 2.174515 24.068928
0.031929 0.461881 24.171364
-10.442026 0.262908 31.858648
-7.428294 2.998423 32.430504
-9.834301 0.726287 26.638130
-21.133842 -5.242557 33.514679
-10.355324 0.747684 29.230978
-21.018816 -8.108951 35.870518
-7.356595 1.115605 32.513924
-7.428310 0.882600 32.819954
-10.171529 1.055469 31.988028
-19.154337 -5.885968 35.769306
-27.685043 -9.587803 33.405674
-6.487537 1.188147 32.954540
-8.525053 0.340859 32.467617
-14.753474 -3.981625 36.210041
0.693328 0.476848 18.531685
0.286338 1.953917 19.862085
-14.904597 -4.028844 36.400845
0.492171 -0.495856 20.431648
-10.507102 -5.372701 37.130188
-8.700109 -0.292162 39.312241
-0.333184 1.575571 16.389280
-1.786842 1.538291 16.094656
0.760297 -0.695727 18.621511
-1.017102 1.931834 19.605545
0.660635 1.105556 16.481335
0.335349 1.011301 22.196075
1.058866 -0.033286 16.148949
0.396820 0.757261 20.242023
0.365708 0.722696 21.139034
0.926429 0.398727 15.999570
-0.850057 2.157184 21.888447
-2.103679 0.334023 33.075443
0.784302 1.402667 17.231010
-1.614119 1.637631 17.016541
0.479551 -0.113935 20.701353
0.715430 0.619012 16.828142
-9.470870 -6.610435 37.676044
-20.596367 -8.143481 35.710995
-13.602889 -2.580498 36.344627
-20.602020 -8.158447 35.698086
-20.577772 -8.154352 35.651928
-8.533172 -2.485743 38.242645
-9.734782 0.292747 26.941505
-0.723801 2.186427 22.184250
-0.803048 2.110022 21.840765
-0.035579 2.274074 23.313837
-3.632176 2.168228 22.767693
-2.032431 2.351827 24.189812
-2.254850 2.292682 23.605764
-0.388210 2.176069 22.194788
-1.258900 2.167629 22.078379
-18.862074 -4.289156 36.903927
0.284905 0.945751 21.974297
-7.602390 0.615389 9.138935
-8.468266 -7.118684 3.824868
-0.125784 -0.060112 10.683550
-5.101041 0.662870 7.781761
1.053586 -8.071696 4.179832
0.380399 -4.414369 6.400851
2.430295 -5.139528 9.289524
0.007999 0.593219 9.845584
-8.472779 -5.917191 4.216178
2.601057 0.140972 6.258139
-10.112866 -0.072396 28.636183
-8.040812 1.422563 32.372250
-8.127931 1.720366 32.104984
-9.497597 -0.321787 30.916176
-9.664171 2.080922 25.366274
-8.069708 1.710032 32.115269
-9.087388 0.801787 32.311855
-23.094839 -11.172178 13.373393
-10.388440 -0.182347 32.513523
-15.502663 -3.063855 36.526539
-15.507631 -3.089376 36.519352
-8.213923 1.484332 32.335510
-8.938453 1.013726 31.952316
-9.381032 2.516695 32.236431
-14.816082 -2.781410 36.132401
-11.379111 1.474073 32.401440
-25.946777 -9.296312 33.403957
-24.786724 -8.612770 33.177490
-20.560537 -7.414098 34.231747
-10.940684 2.671486 30.743237
-8.295832 1.512135 31.791779
-9.859831 2.299513 26.577364
-21.383812 -6.306562 34.559483
1.090144 -0.413314 16.131798
1.081364 -0.049422 15.933326
0.848302 -1.017252 17.057375
-9.377639 -5.464877 37.349850
-0.611832 -0.184051 29.381809
0.473715 -0.702422 20.412159
0.617254 0.043453 19.181452
0.681128 0.182317 18.001760
1.113684 -0.964289 15.764572
1.686054 -6.362198 4.848619
2.036041 -6.884766 3.819483
-10.417541 -14.044313 2.434109
-10.215164 -13.606594 3.395036
-10.904677 -12.378022 3.787512
-7.545169 1.385904 32.838085
-7.385442 1.381563 32.630852
-16.680115 -2.573690 32.358852
-8.932095 2.936721 32.284294
-8.369295 1.482591 31.769796
-0.645688 1.548200 29.101906
-2.785524 2.989125 31.679375
-0.699548 2.295660 29.144045
-1.102872 1.179180 32.736732
-1.055384 0.135296 32.449417
0.327202 -0.362075 22.035826
0.676343 1.618505 16.490845
1.106671 -0.960073 15.769781
0.544280 0.734884 16.519495
1.233972 0.098777 14.947677
0.656915 1.701761 17.337708
-8.585679 -3.426197 34.763145
-1.245303 1.552678 16.245947
1.100867 0.076802 15.887675
-1.549745 1.534266 16.127598
0.685622 -0.392841 18.233896
0.895002 -0.715362 16.975489
0.873621 -0.282784 16.972059
-7.435883 1.063391 32.484035
0.810605 0.205023 17.493734
0.820713 -1.319337 17.356369
-1.246600 1.516837 16.094278
0.872747 1.283590 16.277975
1.089581 -0.586841 15.714746
1.117273 -0.560551 15.788201
-0.550527 0.220028 28.984625
1.179172 -0.330867 15.404016
0.996988 0.408782 15.741139
0.578957 1.390026 16.530315
-0.896826 2.561748 31.051277
0.796836 -1.304960 17.320860
-7.512512 -6.233235 39.408573
0.564152 0.443974 16.531178
-1.622442 2.301153 23.579910
-0.844641 1.326413 31.384727
0.757618 1.453828 16.540108
0.733179 -0.863962 18.240622
1.033993 -0.932611 15.706586
-0.933160 1.580262 16.301899
-4.829204 2.038230 33.303444
0.636747 2.116120 19.755964
0.669118 -0.879294 18.571491
-0.659368 1.605999 16.350700
-1.046300 1.612082 16.301203
0.317880 1.772793 20.374107
1.066884 -0.936585 15.721730
-9.256591 -3.733640 36.692234
-0.732509 -4.956915 34.648411
1.059156 -1.070960 16.585083
-10.173131 1.558133 29.736115
0.891011 -1.077464 17.155737
-7.660020 -0.701282 37.025951
0.615129 1.601881 19.355234
-4.013618 1.243278 30.157539
-0.616257 0.357155 29.615950
1.178180 -0.658743 15.554465
-0.935930 2.475865 31.302410
0.691362 1.107002 16.577160
-0.838583 0.054656 30.910599
0.132593 2.095192 20.935675
0.890511 -0.725871 17.204802
-8.222544 0.985344 14.793780
-8.580649 1.040998 16.589270
-0.930838 0.753107 14.705204
4.075217 -14.545498 -17.065544
-0.149404 -6.214731 4.382571
-8.242025 -0.422156 14.813509
-8.029363 -1.323069 12.384357
-0.245219 0.712474 13.920403
-8.464957 -1.195985 16.853975
-6.460897 1.310333 15.123126
2.306759 -12.226507 -11.395723
-8.225991 -0.092800 12.270203
2.223528 -5.475562 10.308941
0.384422 0.046787 9.409411
-10.872678 1.745250 31.924673
-10.089270 -0.062365 28.693289
-9.793040 -0.498039 28.424620
-10.354903 1.969762 29.117422
-2.731447 2.258595 31.561504
-0.904000 0.039754 31.376461
-0.959648 2.285422 30.448071
-0.108904 1.117765 24.967138
1.156962 -6.154137 36.481590
0.367088 0.189590 21.196501
0.690113 0.479088 18.518364
0.746483 0.414559 17.364231
-6.929911 -3.871259 36.226974
-4.159886 1.144632 31.696682
0.599522 1.285355 16.511850
0.675115 0.753220 16.561253
0.038018 0.104885 24.185385
0.035153 0.684489 24.196314
-3.045209 -3.423584 37.279541
-0.559464 -6.045359 39.366631
-5.371387 -4.082464 37.617767
0.697880 1.483247 17.767227
0.457387 -0.464330 21.185564
0.493371 1.264827 19.315662
0.346871 -0.575786 22.103477
0.691197 -0.613952 18.188589
0.578739 0.619840 16.431814
0.539182 0.733931 16.514894
0.651667 1.087515 16.529360
0.733522 1.130328 17.530664
0.580060 -0.816104 19.325125
0.835970 -0.055061 16.744669
1.106810 0.193216 15.872226
-5.683601 2.710453 32.219391
1.064519 0.094543 16.222940
0.620874 1.026355 16.490618
0.307709 1.657511 16.442650
-0.575258 -5.781349 38.755703
-2.838807 -5.756132 37.358227
-0.539099 0.225169 29.291225
-2.833073 -3.968325 37.294617
-2.336406 1.697345 33.676235
-0.915864 -1.258288 32.230869
-3.716515 -6.080110 37.828362
-5.211193 1.758530 33.028713
-1.461944 -2.113191 37.882599
-15.838376 -8.615144 36.648190
-20.680122 -8.192794 35.782310
-0.863377 1.745215 30.724110
-1.800383 2.159575 23.016954
-11.296947 -6.007765 55.065617
-0.099198 1.970172 24.568758
0.191808 0.803491 22.135485
-10.242175 2.227054 26.171320
-7.994133 -4.543944 38.054459
-19.091631 -6.822992 36.067215
-1.681487 2.387818 24.826740
-9.829808 0.316983 26.507631
-10.962641 0.332203 30.156849
-9.816210 0.325184 26.530006
-18.640436 -8.653685 15.739909
-10.189512 0.314819 29.873055
-9.664802 -0.845476 26.548319
-10.377697 2.383651 27.941942
-10.221501 1.759632 26.811132
-27.592260 -8.049057 19.191219
-6.238558 2.787070 32.416893
-8.098013 -0.098449 32.797722
-9.023902 -0.135959 32.969273
-9.048573 0.906085 32.531624
-8.739679 3.130617 32.853882
-7.071942 3.038530 32.385578
-7.790167 0.283006 33.081493
-7.296639 3.036195 32.591198
-6.807494 1.130404 33.015503
-10.615869 2.592909 30.242060
-46.214901 -16.685129 33.210907
-8.442715 0.120009 32.793785
-15.272689 -3.661271 36.489891
-8.869994 2.632688 31.959898
-10.252296 0.736209 26.861588
-10.945457 2.795978 31.460033
-10.199156 -0.212986 29.644283
-8.597488 0.609399 32.180382
-7.985267 1.689491 32.157219
-9.211094 2.128222 32.372280
-11.035803 1.148351 24.211060
-9.084607 0.653896 31.550915
-11.098879 -0.717823 32.794308
-9.030848 2.313951 32.165512
-8.849071 2.280386 32.111217
-10.631078 1.095927 32.842850
-9.270738 2.532874 32.123085
-12.804704 -0.523090 29.683214
-23.272278 -9.816708 33.798485
-10.408038 2.481392 28.481113
-20.077244 -7.373916 33.411404
-0.494150 1.885559 27.803289
-0.304068 0.397012 26.810122
-2.656336 3.045827 30.176092
-0.315896 1.281951 26.780001
-0.313247 0.733921 26.686293
-0.783241 3.189038 30.638542
-0.692348 2.424588 28.147522
-0.242128 1.118519 26.202740
0.000899 -4.208749 37.853622
-6.289536 -0.204434 4.444138
2.420710 -4.561025 6.699021
-3.673970 -2.491831 4.657174
-6.800406 -3.762718 3.832343
-7.163164 -1.564372 9.573026
-6.017499 -2.134853 4.656375
-5.812012 -0.431413 5.310920
-5.827873 -0.406940 5.677382
-1.101796 0.156474 4.979182
-6.321429 -3.724796 4.382771
-10.156544 0.139409 29.858477
-0.334193 0.429640 26.915613
-0.423843 0.268135 27.780449
-5.289405 0.226434 5.303356
2.376119 -5.025414 10.229118
2.406724 -0.082694 5.877983
-4.424466 -0.827517 5.261356
2.538875 -5.208929 6.838148
-0.661396 0.869035 13.408173
-15.748925 -3.200084 36.699295
-9.984807 2.104411 24.804766
-10.358094 2.465791 27.778082
-10.293903 2.514169 28.327852
-10.458947 2.510142 28.176662
-10.538309 -0.350207 32.593998
-9.009601 2.122994 32.235157
-8.419797 1.523648 31.839939
-10.120018 2.201470 25.664957
-8.712293 2.297391 31.835854
-4.396560 1.039268 32.313854
-5.092705 1.181994 32.632320
-3.197407 1.522962 32.849335
-4.042352 2.245660 32.380695
-3.766876 2.815701 31.887352
-8.278406 0.389236 9.389356
-7.524736 -0.484641 9.493027
-7.646869 -0.372225 9.446787
-7.754133 -0.656635 9.691351
-7.659350 -0.145250 9.449168
-4.829141 -2.577033 4.738989
-3.154783 -0.194156 5.864301
-6.095813 -0.644576 4.539417
-3.566373 -2.540941 4.299239
-5.913485 0.155071 5.872440
-3.658984 -0.157269 5.881465
-5.521172 -0.498212 5.464864
-6.519433 0.414486 5.865123
-5.987587 0.208648 6.078012
-6.805547 0.003963 5.424006
-11.338474 -0.904421 1.484390
-12.585314 -1.300140 1.494119
-4.819822 0.048040 5.594499
-5.105278 -0.475085 5.656801
-5.069405 -0.687884 5.657790
-4.599694 -0.444080 5.651719
-6.089341 -0.661351 4.284351
-7.850001 -4.113696 3.389117
-6.258018 -0.426203 5.464369
-11.203918 -0.574307 1.728268
-11.696803 -3.068782 1.751665
-8.366149 2.654852 28.831215
-10.544100 2.497413 29.019751
-10.124209 -0.217565 29.626217
-10.779796 1.632833 30.805725
-14.389256 -1.958538 33.223866
-4.045602 0.817104 32.380142
-5.517295 3.047756 31.859934
-4.227994 2.710197 32.214497
-15.109926 -4.215580 36.382523
-4.311120 2.698763 32.169468
-15.032996 -2.188949 34.419731
-4.449431 1.466160 32.398232
-4.522469 2.509840 32.121048
-4.519432 2.971364 32.211441
-9.627464 1.741881 31.457996
-12.599709 -4.116728 36.807449
-6.896039 2.890598 30.504314
-13.886244 -4.074155 36.765247
-19.826347 -6.347217 35.902493
-6.111635 2.485790 32.926712
-9.022267 0.493380 32.803268
-5.575825 2.133542 32.629505
-7.051027 1.133881 32.837906
-7.486920 2.303518 32.743767
-3.946819 0.698335 32.448803
-3.888446 2.536967 32.192146
-7.204910 0.063270 32.830402
-5.204714 1.938909 32.832245
-7.539213 2.696553 32.723587
-4.833766 2.963635 31.790909
-4.334743 1.330361 32.337421
-4.564434 3.000964 31.415567
-3.709668 1.857199 32.468388
-5.603918 2.857926 29.923281
-19.088640 -3.813670 28.499483
-7.913197 -0.170299 33.356804
-8.945588 0.304091 32.880047
-6.366732 1.419655 32.853600
-6.782064 3.063058 32.345367
-15.791382 -1.958451 31.946712
-5.837467 2.767885 32.290936
-8.858339 2.521398 32.045967
-5.874810 0.215886 32.880760
-6.689024 2.979675 31.016668
-6.077897 0.697500 32.872833
-7.816733 3.029501 32.476910
-9.100953 0.415429 31.101521
-18.305367 -6.820437 36.201149
-20.734011 -7.062202 34.379566
-19.784868 -7.786090 34.260387
-19.408131 -4.148119 26.883223
-9.627416 0.463090 32.350182
-7.424370 0.887186 32.824566
-10.331868 1.506862 32.095345
-2.006519 2.716229 27.983685
-0.316684 0.941210 26.774195
-0.461183 1.532916 27.752731
-0.607894 1.415829 28.740265
-0.745786 1.359666 29.670837
-0.335978 0.675699 26.901091
-0.950097 0.452535 31.302834
-0.352661 0.980124 27.244225
-3.727358 1.407220 32.736282
-4.586673 2.575790 32.716766
-4.310502 1.912156 32.549412
-1.470497 -0.808902 33.356964
0.736448 1.185806 16.465916
0.711775 -0.623103 18.231993
0.047335 0.105031 24.360388
1.070404 -0.236923 16.323679
-3.663429 1.365715 32.304600
-3.694878 2.890651 32.321285
-0.454137 1.848797 26.779039
-5.743413 2.730340 32.298126
-0.327583 0.692975 26.665262
-0.297307 1.476687 26.526203
-1.211144 2.553597 30.674978
-0.323694 1.274589 26.768906
-4.483269 1.589694 32.250523
-0.335116 0.452840 27.186655
-0.451013 1.853256 26.789951
-0.552998 1.707346 28.558079
-2.157875 2.669179 27.386301
-7.459508 -1.398822 37.808311
-0.670141 2.353736 28.096167
-0.544199 2.302905 27.906406
-7.752975 -8.765491 4.677909
-4.856564 -0.711157 4.223948
1.590304 0.145934 14.241226
79.123260 -277.506866 -383.314362
-10.892613 -10.515022 2.698441
2.383569 -2.096165 3.715758
0.627903 0.901181 16.640944
-0.731220 1.591917 16.344429
0.559732 1.329953 17.233091
0.782393 0.430584 17.775282
-0.092625 2.218104 24.470554
0.697302 1.018719 16.491634
0.634198 1.427390 16.601002
0.663459 0.962324 16.536142
0.656708 -0.427934 18.713724
-5.759135 -3.522242 34.887371
-0.197114 0.565717 26.052938
0.335486 1.866329 20.813459
-5.190660 1.205461 33.096100
0.621035 -0.423164 18.633905
-1.130308 1.260155 33.016018
0.033561 -0.087446 24.450686
-3.798653 2.939944 31.466343
-6.443338 -3.967546 37.326122
-0.035955 0.965236 24.156286
-10.361662 2.399360 31.816637
-9.090683 -0.767440 21.378380
-10.359217 2.441196 27.845947
-10.613955 2.517262 27.268257
-0.176065 0.132132 10.870043
1.522039 -0.553716 14.638050
-8.332921 0.868823 12.188193
-0.478927 -4.127906 4.678498
-10.881484 -11.743212 3.035242
-1.187346 -9.103593 -4.203012
1.485653 -0.441716 14.998981
-8.316262 -0.662124 15.035520
-8.680745 -8.817746 4.417121
-8.503409 -1.449212 16.726536
-8.510082 -0.380591 16.926952
1.169031 0.288313 8.478703
2.496722 -5.377255 9.614347
-4.757329 2.896140 31.391115
0.445919 1.897744 18.908302
0.694762 1.034804 16.460247
0.618416 1.276147 16.484764
0.727699 0.963528 16.536428
-0.688945 2.217455 22.372246
-0.897258 1.348879 16.325096
-4.953874 0.411858 33.089615
0.646574 -0.868959 18.499378
-3.772271 -3.628161 37.532501
-3.847926 1.289045 32.757389
-0.151087 0.911137 25.463760
-5.474760 -1.999832 36.019230
-0.488828 2.378036 25.995972
-0.212636 0.605927 26.039330
-0.292275 1.200952 26.485920
-0.339438 0.181312 27.251400
-5.922565 1.310199 32.915451
-5.877209 0.456344 32.965137
-7.656710 2.990242 31.861088
-9.888240 2.248661 26.218819
-5.680827 2.460989 32.824669
-15.186584 -1.762828 31.882515
-8.169868 1.411602 32.440479
-5.932592 2.837090 32.116386
-7.178932 2.998313 32.186455
-7.232279 2.961319 31.828890
-10.859406 1.784807 30.802809
-18.028545 -4.148751 35.894386
-17.424128 -4.247448 35.905231
-10.322001 0.195548 31.191635
-9.892785 2.225039 26.403847
-16.187351 -5.020506 19.361181
-19.219177 -9.281332 15.075969
-19.930960 -9.714157 14.170345
-10.328736 2.436576 29.400558
-23.618635 -9.513630 13.180716
-19.327168 -9.357352 14.969950
-10.191600 -0.339389 30.844517
-20.548628 -8.783987 14.877976
-19.637310 -9.615147 14.607922
-9.739750 -0.570670 28.039871
-9.189882 2.896254 32.552231
-9.756147 2.263363 31.929220
-8.382998 0.341772 32.712532
-10.114100 2.188236 25.445963
-8.342438 0.105478 32.752033
-9.013595 2.643552 32.003666
-10.524302 0.092564 31.302477
-10.329956 2.579881 29.528131
-14.603158 -1.961756 33.847450
-16.469692 -3.295617 36.502235
-10.425091 -0.516371 30.156088
-8.527589 1.439968 32.078362
-19.154570 -4.121496 35.710114
1.043187 -0.305161 16.187819
0.805796 -0.892798 18.389183
0.714080 1.587037 17.281580
-0.139993 -0.122308 26.039007
0.554214 -1.200686 20.667513
0.271653 1.541414 19.598211
0.630773 1.215089 16.517488
1.010489 0.742432 15.544462
0.854729 0.156999 16.528498
0.053593 2.916021 29.942013
0.621626 0.886863 16.492525
0.667348 1.174021 16.539492
-0.583988 1.340948 19.896580
-0.769789 -2.456945 30.224108
0.882269 0.650803 17.133524
-0.109239 -0.611053 26.405575
0.353875 1.914102 19.268967
0.348742 0.241896 21.821955
-0.401866 1.844109 27.088305
-0.392208 0.654686 27.659533
-0.662820 0.715071 27.203804
0.028054 0.154144 29.386732
-0.368215 0.992213 27.324211
-0.556230 2.381488 28.040865
-0.394530 0.747009 27.299597
-0.448743 1.299777 27.656481
-0.534461 1.999233 28.258434
-0.482746 1.560552 27.664585
-0.385195 1.328700 27.188206
-0.686555 0.915556 29.520693
-0.536216 2.413236 28.125645
-2.159198 3.288507 30.767433
-0.458335 0.575810 28.182152
0.701720 -5.103952 6.924125
-7.855706 -0.316307 10.681322
-6.229789 -6.620266 2.677962
-7.892265 0.423487 12.156535
2.239082 -1.089302 9.038933
-7.868271 -1.739576 12.010617
-14.475199 -49.215332 -73.538658
1.069853 -6.592449 3.874051
-0.140676 0.792286 10.494149
-8.029279 -0.032455 9.767246
-7.175000 -5.769950 4.289498
-1.848901 -6.319832 3.134552
-0.990821 -4.699202 5.959420
-4.595654 -0.364305 5.892266
-4.548540 -0.683973 6.032631
2.461210 -3.346302 7.751567
-1.652272 -3.743549 37.593029
1.072136 0.415254 16.097048
-4.479856 1.145745 32.618183
0.856431 -0.709041 17.163029
0.345397 0.131297 21.090359
0.078183 2.155969 21.656618
-6.606934 -0.071387 36.996876
-4.514965 -2.334376 32.945667
0.679948 0.871506 16.522938
0.672320 1.200780 16.523808
0.771129 0.207513 17.433311
0.880645 -0.229328 16.869301
0.890709 -0.330538 16.664677
0.633567 1.737630 18.367468
0.783133 -0.957061 18.168264
0.032678 0.113045 24.338430
0.469238 0.090765 20.816322
0.831479 -0.101187 18.321039
0.892856 0.513310 16.448458
0.536948 0.546890 16.471989
0.028254 1.623263 16.429602
0.730397 1.207787 16.594084
-0.727529 -2.070445 38.286087
-1.889102 2.863186 29.967607
-0.724735 -0.047787 29.916853
0.761369 1.064723 16.523277
0.565701 0.584813 16.622715
0.777872 0.572326 17.537354
0.777120 0.206158 17.445812
0.621243 1.551126 16.614109
0.200695 0.441161 22.143599
0.207772 0.201041 22.162741
-0.028336 2.320968 23.449659
-5.570794 2.985558 32.357155
0.479029 0.054353 20.978598
-4.316050 2.230549 23.462572
-2.092067 2.119339 21.964081
-2.733217 2.090317 21.794960
-0.095070 1.272069 24.788645
0.174552 1.561602 21.792444
-9.804503 -0.266564 32.372711
-10.321728 -0.434016 32.540363
-16.277409 -2.599523 34.830971
-7.058021 -0.006177 33.057472
-6.494405 2.026533 31.694164
-6.502871 2.917000 30.876818
-20.064281 -3.339600 32.680141
-7.927423 2.997411 32.621655
-7.556596 0.858901 32.922188
-14.110009 -3.182583 37.086262
-13.987794 -3.145889 37.002377
-19.204596 -6.102880 20.848839
-17.801731 -3.863281 37.382355
-18.808826 -9.334601 14.969820
-10.657291 1.673054 32.481445
-18.918474 -8.958815 15.177993
-24.312937 -12.478453 13.165442
-10.394381 2.502558 28.326710
0.344664 -1.234679 21.458996
0.721331 0.650688 17.715378
0.605823 1.646167 17.733814
0.652818 1.803475 18.127613
0.723190 1.594191 17.306421
2.659479 -1.208329 3.900426
-2.932074 -0.677492 5.610881
0.750662 -5.421603 6.463582
-8.332057 0.870407 14.871150
-7.332155 -2.635775 8.575025
-7.342115 1.209722 15.039927
4.162512 -23.054482 -26.644655
-3.484375 -6.885558 4.667171
-6.841162 -6.706456 4.972412
-0.136390 0.139307 10.830921
-5.234586 1.370382 15.171236
-8.017601 1.176743 14.922620
-8.318484 0.893717 14.645630
-8.132771 -1.092289 8.632912
-5.834211 1.330114 15.273913
-7.965301 -2.235695 11.258107
-5.051799 -5.348191 4.474366
-6.319989 -0.066786 5.047323
2.038790 -5.500376 5.716308
2.615643 -5.827034 5.005125
1.319618 -5.033863 6.639051
-5.595387 -0.065439 5.105890
-7.412882 -0.367282 9.144392
-4.087718 -0.743292 4.811172
-0.117223 0.864703 10.236698
-0.881329 -4.506721 6.219287
-2.235573 0.177704 5.267557
-5.333242 -18.258041 -17.442156
-6.727119 0.170398 33.005619
-6.745957 0.072557 32.943058
-10.287947 1.488930 29.180542
-6.334860 2.964380 31.365309
-8.434649 3.002070 32.622566
-9.359250 2.546410 32.151608
-6.264041 1.094396 32.495922
-10.809046 -2.157745 36.348209
-7.612518 0.324782 9.482129
-7.787755 0.047127 9.471694
-7.663940 -0.216545 9.525436
-4.163693 -0.196848 5.212331
-7.494607 0.570337 9.313465
-4.081324 -0.020761 6.155077
-7.634115 -0.756590 9.511889
-7.674537 0.154898 9.435568
-3.568623 -0.749430 2.260841
-3.511732 -0.758440 2.033160
-7.625606 -0.755364 9.530845
-8.784048 2.126976 32.080891
-8.947633 1.322113 32.219322
-8.473607 1.380533 32.280300
-8.832995 2.128731 32.096966
-24.612633 -10.437031 15.222373
-8.384638 0.773975 32.778233
-10.631855 1.270496 32.090103
-19.137392 -4.317101 35.675495
-13.955140 -4.042089 37.311974
-10.448108 0.108915 31.373863
-8.975139 0.781901 32.892418
-20.334337 -3.407412 32.890907
-7.087584 1.046199 32.474865
-7.195096 0.624160 32.946754
-8.420869 2.787644 32.463982
-6.276263 2.845736 29.741886
-6.642350 2.823884 29.594223
-5.740166 1.890871 32.594696
-5.795810 0.123415 33.056725
-5.118846 1.004771 32.946537
-5.886030 0.705966 32.998062
-7.049635 1.382595 32.955215
-6.446887 2.802545 32.612072
-8.024583 1.708001 32.093822
-6.645713 2.568300 32.650600
-5.121874 1.531145 32.902863
-18.009104 -4.146930 23.626772
-6.224259 2.134594 32.773018
-6.519945 2.021933 32.823059
-6.236954 2.832018 29.743788
-10.517076 2.423151 27.907877
-9.647134 2.838004 31.833138
-14.704624 -10.917023 4.444663
-9.540624 -0.659629 24.741938
-10.085111 0.739224 29.298286
-8.908360 2.424267 26.486872
-10.210862 2.541329 28.502924
-10.528909 2.581478 28.309563
-9.146612 -0.840185 21.090330
-13.727341 -8.470753 5.220239
-9.494128 -0.762675 25.860180
-9.624107 1.561457 22.206802
-8.899041 2.417749 26.510382
-9.330880 -0.465854 23.699945
-9.630866 1.752290 20.624207
-10.933348 -2.006338 25.121550
-10.518987 2.579629 28.314314
-10.479863 2.562810 28.564049
-6.005485 -13.353308 5.208754
-7.620521 -2.161507 12.654690
1.266871 -8.570573 3.892457
-0.448384 0.147158 12.494010
-8.296974 -1.492920 15.266115
-7.280120 -7.068076 3.985552
-0.562577 1.163074 13.201514
1.346025 -3.444548 16.479502
-7.349039 -16.498322 3.356083
0.650284 -14.405925 4.493684
1.355820 -11.548743 4.144666
-3.290818 1.911945 19.991598
-5.165566 2.115665 22.160006
-7.603142 2.303761 23.715078
-6.902544 -11.603514 4.726226
1.691881 -5.199864 5.762671
1.122542 1.292992 16.188694
-0.878631 0.002434 4.652462
1.688717 -5.865269 14.901958
0.400718 0.768733 14.250134
-10.891258 1.793090 30.851475
-10.441888 2.386300 27.522102
-10.500550 2.424412 27.962479
-10.072219 -0.332794 30.069658
-10.841864 1.760574 31.913887
-9.893299 2.324796 26.274410
-10.036372 -0.024140 28.669201
-6.604751 2.870991 30.907909
-8.188158 0.003038 32.718693
-10.567654 0.834278 32.509583
-8.921121 0.624721 31.893301
-19.732006 -4.937194 24.563421
-7.473265 2.537076 32.735325
-2.396835 0.155509 5.664634
-10.420869 -9.256137 2.710980
-7.456828 0.571374 9.197474
-3.309448 -0.880215 5.243405
2.535352 -5.795790 7.912694
-7.367025 -1.533579 8.817136
2.197354 -1.634173 9.740294
-10.344089 2.273644 26.647383
-9.931785 -0.213105 26.266661
-2.826580 -0.345722 5.832346
-2.647335 -2.575006 4.190196
-2.446722 -6.924596 5.012969
-3.275588 -1.902753 3.725099
-7.909743 2.346730 25.266487
-8.087371 2.312515 25.090652
-10.577982 -12.855040 2.189040
-12.400990 -12.435834 -3.988841
-2.606286 -3.723934 4.802465
-2.302824 -8.807407 4.814727
-11.860415 -10.590692 2.825415
-9.830897 -0.693904 27.553041
-9.426683 -0.890173 24.811684
-8.979206 2.401467 26.575838
-24.577854 -14.498738 9.718925
-10.244346 0.787794 29.261950
-10.127406 2.202123 25.547363
-7.822884 -1.869610 12.161518
-8.190627 0.986600 14.772389
1.745968 -8.034850 4.189502
-7.805399 -1.819533 12.275485
-6.487661 -2.827976 2.573606
-11.355625 -10.175401 1.795882
-7.908020 1.130091 14.000223
2.392796 -5.228766 6.789877
-10.225327 -8.379513 2.821356
0.409490 1.015747 14.250044
-8.217198 0.993123 14.804226
-0.767032 -3.432598 -6.713767
-0.209143 -6.278097 5.246908
-6.053380 2.043570 21.090153
-6.104711 2.132489 22.245325
2.258450 -2.183912 3.648015
-0.291362 1.536798 15.995522
1.477968 0.314638 14.222721
-2.212587 -12.141060 4.987272
-2.084855 -13.567625 5.166292
-5.482656 2.112175 21.898001
-3.776321 -13.490907 5.188752
1.592432 -4.993858 15.632727
-0.027585 -5.048596 5.268503
-0.049021 0.123072 11.971981
1.578229 -2.916705 14.804575
2.091120 -5.602908 11.019478
1.764008 -5.104945 14.812302
2.947577 -8.183279 6.150027
-5.034647 -0.613254 5.630129
2.066819 -6.558537 4.334057
-2.512083 -5.354465 4.947261
1.212969 -9.058489 4.120923
1.748050 -5.808735 4.205496
2.475738 -6.437783 9.219857
-2.350393 -8.799979 5.239537
-0.307292 1.175319 14.028255
-10.073414 2.147680 25.264286
-10.378049 -0.410856 28.597460
-8.824821 0.961295 29.613501
-10.740498 2.249204 32.273212
-9.006162 2.647398 31.990986
-14.361676 -1.946599 33.223026
-14.551985 -1.945601 34.446064
-8.708020 2.176037 31.963577
-18.007853 -3.894371 35.886395
-6.762259 2.511197 32.818443
-15.799076 -2.554944 28.795021
-8.783378 3.124910 32.872208
-7.653915 2.574595 32.852501
-6.876505 2.971583 31.439548
-9.712182 1.771020 31.433077
-6.283060 1.576623 32.851646
1.695334 -3.715248 14.813243
-6.108741 -0.631829 5.792609
1.472893 0.238993 15.195729
-6.265263 -5.558607 4.410743
-9.498552 1.123261 20.916565
1.611664 -1.157252 14.435628
-0.466559 0.217382 4.691386
1.325282 -3.211193 16.260468
2.466773 -10.178879 10.105846
1.842108 -1.865762 10.699464
-9.494966 -0.189400 21.021606
-9.780277 -0.226703 26.504700
-9.826559 0.739201 26.652340
-3.360312 -2.524043 4.779869
-11.512585 -11.604286 0.017726
-7.803004 -1.680516 12.078461
-13.467458 -13.600181 0.968989
-15.698094 -15.314741 3.191109
-10.250621 0.737638 26.845070
-9.171665 1.380431 17.843391
-10.141941 1.492319 29.223408
-10.181487 0.225729 26.906902
-9.855085 1.173131 32.244305
-6.909870 2.989351 32.483013
-6.148242 1.522163 32.801388
-6.698192 3.030030 32.034664
-8.720792 0.357527 32.769291
-18.712866 -6.607739 35.906990
-7.112152 2.963023 31.368858
-9.215334 0.565632 31.991432
-10.762792 -0.356717 33.132660
-9.628736 -0.374520 24.112833
-10.244298 0.444233 32.281200
-12.725364 -1.625790 33.514004
-9.080553 2.535051 26.077326
-20.738724 -17.465719 5.660640
-8.225222 -0.493470 12.404284
-6.988783 -2.188267 6.452134
-21.097658 -17.180334 5.787755
-15.806802 -11.693399 11.852478
-14.275139 -9.598312 13.979821
-22.119486 -16.910162 7.155138
-11.952909 -11.812662 2.828723
-9.033932 -3.926248 9.829707
-7.381046 -0.416621 9.116948
-7.702333 2.353602 24.987843
-8.375286 2.074324 22.032804
-7.804203 -4.333412 9.017976
-22.526884 -26.688313 -12.292205
-17.872589 -11.132535 14.650389
-13.143964 -10.670883 9.404049
-14.218075 -9.472906 14.177705
-15.279968 -11.754713 10.878332
-11.384768 -10.895307 6.191985
-6.378332 -2.858202 3.338520
-7.268524 -6.883591 4.392027
-14.886107 -9.712881 11.151676
-8.077138 -1.358539 12.186506
-7.130511 -5.995796 3.988950
-11.734923 -10.419136 3.164992
-43.050087 -91.533257 -117.217918
-15.414991 -11.083237 10.748811
-15.078047 -10.488881 13.456300
-16.397392 -16.369291 2.288666
-9.655069 -0.451839 25.571066
-13.801145 -12.089525 7.078255
-13.979370 -10.973401 9.600655
-14.536043 -12.477682 6.140749
-10.136651 2.198872 25.537968
-8.689713 1.767419 20.215223
-10.003324 -0.335060 24.590693
-15.138474 -11.939808 9.551351
-10.395195 -12.169602 2.441013
-9.818436 0.187942 26.548738
-3.253483 -0.858378 5.035475
-7.706260 2.363475 24.957916
-3.606649 -2.592223 5.102216
-9.745562 -0.474552 26.294609
0.534330 -9.948596 4.311501
0.238592 -10.754282 5.179203
-5.590477 -12.070703 -3.254946
-0.689058 -2.126839 4.637723
-7.824349 2.286866 24.408855
-6.505474 -12.600912 5.859950
-21.274662 -42.094303 -70.192635
-9.835689 -0.515836 28.405869
-10.115435 2.195968 25.444654
-10.371691 2.504460 27.821323
-10.321348 2.458081 27.713449
-9.951906 -0.106883 26.104151
-10.154842 -0.083338 28.659904
-10.023404 2.488431 28.033661
-10.394099 2.456784 27.436451
-9.872561 2.315197 26.292500
-0.071451 1.207635 24.619877
-0.397862 0.504121 27.869118
-0.192371 2.102204 25.025339
-0.126257 0.269727 25.489853
-11.887766 -0.522857 35.735737
-0.159771 1.869466 24.971817
-0.294633 1.905859 25.265457
-0.062394 0.981251 24.648220
-0.080312 0.750190 24.698927
-0.121270 1.919244 24.651531
-0.087088 1.040646 25.039486
-0.111163 1.318998 24.923731
-0.255940 0.093617 26.506273
-0.092325 1.631710 24.678164
-0.297989 1.473226 26.506952
-4.413933 1.102902 32.350517
-0.096168 0.689548 25.218555
-0.353972 0.961237 26.901794
-5.075270 -0.723787 34.192318
-1.801307 2.185755 32.170353
-0.277690 1.903211 26.055613
-0.244350 0.599609 26.224571
-0.166804 0.196273 25.800337
-0.151505 0.847392 25.455709
-0.187056 0.907767 25.714396
-0.237842 1.083171 25.966553
-0.175898 1.716074 25.217760
-1.134645 2.675389 27.025154
-0.099179 0.570730 25.168091
-13.634901 -1.078529 36.092529
-10.527048 -0.864006 36.543983
-1.784916 2.741933 31.174126
-1.366423 -0.540525 32.914593
-5.264033 3.031361 31.849113
-4.529880 0.105987 32.598927
-1.591821 2.666543 30.949379
-9.878244 -0.540648 27.942595
-10.031242 -0.691368 27.859249
-19.006712 -10.512759 15.397206
-9.828019 0.397547 26.632000
-9.835470 2.235691 25.778126
-9.839049 0.392768 26.615376
-10.367975 2.524584 28.275322
-9.453720 -0.548869 25.129145
-16.258854 -9.455493 14.623253
-29.135286 -21.668461 1.803126
-10.347328 2.434718 27.854471
-9.077732 2.392646 26.552818
-6.872973 2.134428 32.939201
-7.355649 1.841540 32.729378
-9.780404 -0.211881 33.125496
-6.175260 0.694449 32.886986
-7.078678 0.363736 33.049263
-5.954517 1.034880 32.677372
-7.536816 1.132063 32.677742
-8.602893 0.002177 32.735722
-7.311321 2.158620 32.455803
-14.356092 -1.929359 33.239334
-18.587555 -4.349005 24.020178
-10.163239 -15.218115 2.839740
1.339518 -5.564240 16.799046
1.589036 -3.750212 15.690980
-6.082417 2.041758 21.184610
-6.521670 1.962608 21.041275
-7.691881 -10.406196 4.569574
0.599247 1.893029 19.659540
0.567660 -1.312005 20.324043
0.085716 -0.100924 10.632195
-9.605756 0.875014 22.113737
-7.197765 -1.966938 9.417016
2.308829 -11.991132 4.645170
-0.627461 0.712215 13.692245
2.274345 -11.986087 4.656458
2.051560 -6.273826 5.614300
1.782952 -5.405894 14.843040
1.103950 -1.170726 16.400055
1.140847 1.296685 16.179050
2.381526 -0.928913 6.769608
-7.605435 -10.176561 3.565170
-0.430692 0.776062 13.690199
-15.323800 -13.816401 6.320230
-9.518874 0.059539 23.076963
-5.944357 2.349369 24.635784
1.931560 -1.512811 10.546282
2.412689 -2.523248 8.749834
-10.197319 2.235656 25.796337
-9.840433 0.722180 26.481691
-10.031635 2.142173 25.088079
-10.364791 2.441871 29.385695
-10.478384 0.066631 31.433273
-10.421044 1.888665 27.626617
-8.895659 2.418873 26.492327
-10.422008 0.111593 31.360882
-16.554502 -3.235828 36.505409
-8.903766 2.420448 26.483458
-10.678793 1.645382 32.446114
-10.106931 2.560221 28.653263
-0.172191 1.716213 25.225016
-0.298325 2.384607 25.906404
0.200715 -2.025325 35.400856
-4.000652 2.216158 32.304607
-0.047995 1.526960 24.979830
-0.499401 2.308748 25.510139
-0.105954 1.036640 24.979549
-0.109007 1.308539 24.928968
-0.408861 1.247051 27.153845
-3.290976 1.778889 32.525154
-1.902551 2.688441 31.487307
-9.901014 1.705026 31.578018
-10.434088 -0.156957 30.035374
-10.558494 1.749934 31.965246
-15.165678 -3.140245 31.082357
-14.732852 -2.958775 31.068815
-10.095558 0.147870 29.365639
-10.230968 0.490700 29.297785
-12.896205 -2.897475 36.881920
-11.066324 -0.686008 32.813278
-10.602282 2.016992 32.245502
-10.645092 2.245644 32.236744
-9.889752 1.168840 32.253475
-10.469875 1.660662 32.356548
1.406560 -2.898347 16.070892
-8.642790 -1.235037 18.002119
-10.781502 -14.825108 0.292318
-6.219216 -8.638746 4.946715
-9.042195 1.529350 17.953808
-8.684314 1.772528 20.307648
-8.800721 0.833416 17.438883
1.600311 -9.954973 3.993859
-11.726643 -12.194736 3.693419
1.381976 0.054098 10.117796
-0.074820 0.366357 10.278456
-6.757669 -12.329177 3.765681
-10.385318 -14.010347 0.551631
-6.310626 -6.208964 3.439720
-14.305345 -10.577848 3.693115
-9.687026 -0.604109 25.361736
-10.902617 -12.040517 2.663702
-13.570189 -13.292058 6.057889
-7.558771 -10.511924 3.089969
-11.371126 -7.420526 5.965825
-8.126616 -1.511979 11.348293
-15.157855 -12.342141 7.835449
-16.192871 -16.087803 2.970356
-8.799324 -1.252683 17.818243
-7.134890 -1.925553 7.625452
-15.655304 -10.941572 9.172301
-17.798075 -54.196758 -75.167473
-8.186337 -0.416885 12.948069
-7.997847 -0.769155 11.714005
-6.699052 -2.196111 7.330086
-14.604223 -17.821566 -16.612185
-7.670716 -9.524439 6.273259
-12.091758 -13.641375 1.084484
-14.965641 -11.526964 10.105328
-13.926525 -14.115430 4.716820
-14.091559 -11.337365 8.968574
-15.470463 -15.448740 3.086517
-6.832065 -9.578507 3.580994
-15.230460 -10.307552 10.252017
-7.697923 -7.082405 0.551861
-4.024006 -29.153084 -40.548683
-9.878350 -0.977145 26.623737
-17.410961 -19.235025 -5.459755
-9.074903 1.517642 17.904345
-8.775301 1.240784 18.002596
-8.757460 0.815533 18.008148
-9.939277 2.172213 24.568865
-8.191507 2.602280 28.289663
-12.281584 -1.258573 33.433704
-10.029117 2.135424 26.125570
-9.361507 1.140532 32.402279
-9.215020 2.913142 32.562599
-16.558392 -5.187451 19.902695
-7.823696 0.698119 10.018743
-0.912920 -4.932604 5.314917
-6.797789 -7.176390 4.082146
-0.993905 -5.754356 6.310557
-6.345746 -0.075786 5.492379
-3.884130 -0.429370 3.504424
2.226294 -1.002716 8.955230
-5.098447 0.188035 5.798712
-1.526657 -0.251888 4.754043
1.969110 -9.019556 4.258886
0.085544 0.041277 10.018875
-6.706248 -5.800370 4.214359
-5.146280 0.619448 33.093639
-5.353467 0.438469 33.104580
-6.142266 2.903865 32.262936
-6.740025 0.628897 32.959557
-6.225009 3.136972 31.933447
-9.674924 0.504452 32.263767
-11.552185 1.700167 32.001255
-10.426376 1.889644 27.643360
-7.997100 2.925995 31.191418
-6.085388 1.677249 32.774338
-8.390703 0.773585 32.797676
-6.377363 2.906964 30.187963
-7.406105 3.075817 32.312279
-7.523459 2.114912 32.988068
-5.233216 2.883079 30.019863
-7.005360 0.866551 33.010693
-5.832450 2.890058 30.344633
-10.520340 0.355053 32.111599
-4.448797 2.933613 32.117058
-10.958552 1.721946 31.950682
-3.949254 2.808411 32.054504
-4.273592 1.011140 32.395607
-4.106144 0.792556 32.499523
-3.699794 2.534798 32.428844
-3.694814 1.312349 32.485489
-12.688847 -4.147287 36.817783
-6.835168 1.483964 32.834377
-1.025815 -1.993162 37.303680
-19.559328 -3.236545 36.057770
-10.140497 2.800697 31.695660
-5.050994 0.138350 33.082638
-14.511337 -1.990832 33.270866
-6.248940 1.942205 32.850971
-12.921165 -2.764324 36.848598
-3.216100 -11.842350 5.481887
1.928181 -1.788385 10.598276
2.259235 -14.098777 5.072031
0.709873 0.770908 14.195422
1.373280 -0.458175 14.830934
2.228166 -7.956825 11.235282
2.169525 -9.285715 3.996976
-11.115186 -12.225693 2.854721
-3.019361 -13.888309 3.938311
-2.614329 -13.203514 5.004474
-9.647461 -0.332464 29.097305
-10.993599 2.806215 31.463194
-10.415394 1.823126 27.919294
-10.827858 2.572283 29.877958
-10.458750 1.665802 27.903687
-9.822865 2.560680 28.561945
-14.181434 -1.827047 33.858627
-9.822326 2.281864 26.523939
-10.473940 2.553946 28.569801
-9.992329 -0.056648 26.152628
-16.399099 -3.230769 36.595272
-10.416738 2.348803 29.676350
-8.218716 2.607429 28.273424
-10.232432 -0.148520 29.868542
-9.434368 -0.893902 23.815607
1.601908 -3.789713 15.537022
1.939034 -11.854369 5.140534
-2.777566 -12.053058 5.349883
-0.851915 0.139455 5.100211
2.307743 -5.238790 6.807061
-3.465252 -8.915185 4.976357
0.744912 -8.902761 3.835047
0.550813 -12.228265 4.252274
-0.215073 0.617946 13.916580
-0.423606 0.756213 14.383082
-11.181635 -15.574769 2.387495
-4.046053 0.792974 32.407280
-0.726351 2.297662 26.693867
-0.100710 0.256768 25.593536
-0.231150 1.590341 25.711628
-0.207158 0.688801 25.918633
-5.432385 2.411139 32.882343
-7.461410 1.081588 32.438046
-1.066051 1.844753 32.317394
-7.575954 0.337546 32.937729
-5.061492 2.877051 32.034176
-9.559845 -2.522104 36.915108
-5.041445 1.661404 32.769371
-1.849694 1.238155 31.253103
-2.180398 -0.371104 33.001976
-3.252023 1.478271 32.537231
-1.619747 1.163449 31.379408
-2.606483 2.989696 30.170198
-2.517890 2.936769 30.376308
-2.440449 2.254628 32.065979
-10.861210 -0.628525 24.584198
-15.976816 -11.259137 13.400902
-15.779550 -13.819560 7.226188
-8.206243 0.086732 12.915828
-14.670427 -14.319157 5.404649
-13.931787 -8.755409 15.724329
-11.117290 -4.493847 20.949387
-9.550385 -0.522113 24.406080
-10.535044 -9.393132 2.237857
-10.742560 -12.044845 -0.469711
-9.622164 -0.397992 25.610899
-10.059422 -0.214796 25.638124
-9.818859 0.524708 26.500830
-9.901070 -0.029528 25.795128
-9.860412 0.023402 26.076265
-0.016674 1.533731 24.057531
0.003591 0.625522 24.332251
-0.011074 0.415417 24.348381
-0.005604 0.968050 24.198177
-2.989755 2.827554 28.253454
-0.076589 0.254250 25.024714
-0.040886 0.812180 24.525625
-0.056284 0.950332 24.409481
-0.036081 1.209584 24.688372
-1.741137 -4.670730 40.446983
-0.251278 1.386533 25.812929
-0.136548 2.021537 24.296169
-0.003770 0.968005 24.202911
-0.193070 1.098678 26.009916
-0.173654 1.771752 25.206671
-6.643077 -8.969189 4.752165
-4.779150 -0.070196 3.854066
-11.636130 -10.825580 1.730106
-11.586114 -10.927242 1.547670
-10.321368 -8.570729 3.297433
-1.988647 0.402950 5.511355
-11.929584 -12.850665 2.615355
-6.146714 -0.022369 5.008466
0.700549 -6.099509 4.604428
-0.239761 0.236744 12.863779
2.184577 -11.691378 4.728578
-1.578418 -4.001997 37.887547
0.201741 0.614259 22.134598
0.041314 2.176573 22.037224
-15.848973 -5.639689 36.239422
-0.628046 2.396441 26.455770
-0.149954 0.911167 25.465948
-0.302443 0.640801 26.741405
-0.267203 1.362638 26.070232
-0.293879 1.475602 26.528519
-0.174763 1.340245 25.495314
-0.358728 1.894591 26.656820
-0.278156 1.240957 26.222965
-0.378456 2.232934 26.286139
-8.846166 2.455722 26.933538
-9.850340 0.287167 27.078342
-9.418118 -0.826336 21.117432
-10.000447 2.485682 28.569191
-10.397372 2.485915 27.927418
-10.111793 2.175407 24.965998
1.582487 -4.983311 15.593562
-8.073889 2.379786 25.640982
0.710264 -13.250381 4.429395
-9.351009 0.154906 24.316133
-7.759248 -6.298141 10.817919
-9.612693 0.978816 22.302647
-5.907268 2.360627 24.590769
1.622023 -1.410098 14.456044
-9.217056 -0.000648 9.480044
-7.825309 -1.054700 9.653600
-9.923832 0.213460 9.130804
-7.539073 -0.764807 9.378466
-9.593534 0.191215 9.268360
-11.105613 0.278400 9.385172
-9.462202 -0.935128 9.277863
-7.531448 -0.793481 9.454409
-7.622445 -0.714969 9.507095
-7.616572 -0.865850 9.519295
-7.642315 -0.216493 9.473969
-7.648661 -0.024857 9.521455
-7.355515 0.533546 7.201009
-7.829633 0.070278 9.773839
-9.047449 0.643775 9.999827
-13.098331 -0.242762 9.658365
-10.884487 -0.754160 8.846206
-11.857673 0.571677 10.681536
-7.949782 0.021757 3.981732
-7.921040 -1.364648 9.563826
-10.432309 -2.742000 2.249194
-7.884117 -0.369646 9.748691
-7.807952 -0.371517 9.837890
-7.694951 0.229431 9.392000
-3.488992 0.341023 32.671825
-4.894107 2.929224 30.446301
-4.845355 2.915287 30.177191
-10.607143 -0.440195 33.030098
-13.715190 -3.917462 37.151112
-8.928713 2.621297 31.988127
-8.276864 -0.060411 32.925529
-3.306462 0.706109 32.676826
-6.332769 2.960142 31.357151
-6.638199 2.616875 32.754749
-6.816176 2.128105 32.888283
-5.211441 2.377918 32.492626
-5.745603 2.904737 30.645515
-0.157035 0.807478 25.451168
-0.546423 0.267023 29.333872
-0.675793 -4.581535 36.972176
-1.895100 2.381007 24.754183
-0.007484 0.857338 23.426071
-9.102702 -0.250895 33.066925
-6.461632 0.878307 32.903801
-18.052479 -3.086637 35.938347
-19.407137 -4.479548 37.295486
-8.114385 -4.710697 38.610153
0.974408 -3.658677 36.209385
-3.045596 -1.949352 36.561901
-2.677651 2.351506 24.666689
-6.564382 2.062302 32.600399
-0.795185 2.371432 24.877611
-2.662915 2.332682 24.634806
-0.219011 1.087409 25.908060
-0.307621 0.925793 26.612467
-0.061524 0.494620 24.904699
-1.231308 2.562150 26.220238
-1.052626 2.436212 24.990131
-0.050234 0.487608 24.937168
-0.038026 0.476151 24.799738
-0.059116 0.226726 24.602997
0.040193 0.123630 24.305532
-9.545303 -6.660721 37.852062
-10.628743 -6.679426 38.041069
-0.812155 0.011544 31.251865
-6.507423 0.867859 32.940765
-8.090341 0.766288 31.677231
0.058113 1.014519 23.728586
-1.241364 2.423247 24.970879
-2.753758 2.673715 26.709402
-0.216107 1.633825 25.644955
0.008062 -0.335258 24.562706
0.002101 2.150340 23.773842
-2.236239 2.209129 22.743267
-20.292519 -3.835627 32.881817
0.139489 2.165650 21.994259
-1.024535 2.186461 22.109404
-0.674169 2.167307 22.097382
-4.958654 -1.610927 35.719269
-2.513103 2.109895 21.873020
-2.039150 2.395508 24.249454
-0.329119 0.437957 27.504019
-2.234066 2.082887 21.802788
-0.331202 2.434905 24.020815
0.178974 2.044459 21.634289
0.066143 0.084832 24.754169
-2.189672 2.014497 22.079319
-0.328881 2.037712 25.634708
-10.321856 2.652193 29.619892
-10.629763 -8.957169 3.193178
-0.188662 0.704172 10.884343
-8.060843 0.624081 12.105969
-7.951339 1.033015 13.114153
-7.842137 1.039724 13.258698
2.434725 -0.907507 6.618701
-7.996786 -1.879466 13.155944
2.538914 -0.314189 6.241292
-8.044927 0.618500 12.166303
-7.946873 1.030474 13.127658
-7.845582 1.042571 13.240314
-5.634338 -13.538054 -9.784756
-7.919744 -1.689775 12.465944
1.304716 -4.907507 5.943618
-10.648489 2.317216 31.990824
-6.749353 1.046822 32.536530
-6.361873 1.954493 31.307219
-12.473968 -2.735550 36.554935
-11.677421 -2.158520 35.907722
-18.920364 -4.796457 21.593977
-7.157571 0.623175 32.434265
-10.422635 1.311265 32.400555
-7.692805 1.126085 32.823982
-11.007499 2.717846 31.222843
-6.707256 1.059415 32.506931
-6.970387 0.710301 32.922619
-7.007844 2.924520 31.332663
-12.527183 -3.288440 37.210014
-8.489450 0.350495 32.451233
-13.512391 -2.134117 26.877735
-20.204023 -5.749084 34.305103
-9.386059 -1.106466 23.952343
-9.954196 2.478939 29.222403
-9.350236 -0.844135 24.797506
-9.635044 0.862741 22.072117
-9.636133 0.973141 22.196981
-9.721129 2.055330 23.852125
-7.587985 -1.293494 9.612475
-7.520144 -0.968206 9.460962
-11.248929 -0.659987 9.350911
-7.539699 -0.199914 9.205444
-7.538172 -0.971580 9.533960
-7.640540 -0.800778 9.607549
-10.816587 -0.213110 9.507404
-7.610684 -0.568161 9.512540
-7.467186 -0.451745 9.403446
-7.981980 -0.152287 9.752618
-7.525978 -0.798849 9.414196
-7.707170 -0.480394 9.511337
-7.722724 -1.132159 9.611704
-7.593527 -1.386246 9.616989
-7.433536 -1.442313 9.674008
-9.417521 0.741612 10.318849
-7.659799 -0.375097 9.426938
-7.513923 -0.787872 9.484838
-10.840591 0.511025 9.371721
-7.859135 -0.285319 9.589136
-8.062802 -0.368978 9.538716
-8.037913 -0.407888 9.676071
-9.250933 0.678895 10.378910
-7.652296 -0.373509 9.440768
-7.695430 -0.452900 9.407699
-10.748004 0.488514 9.407793
-7.423560 -1.489287 9.244557
-10.798071 2.640076 30.253162
-10.074688 2.514375 29.187868
-10.445265 2.547018 28.914614
-9.801453 2.534184 28.445032
-10.090569 2.475314 27.636486
-9.379039 -0.513634 23.610367
-9.955441 -0.145087 29.691544
-10.277445 0.159501 30.483561
-5.256074 1.945946 32.905964
-6.459854 2.927627 30.871649
-14.648781 -2.573900 35.989635
-15.642015 -3.805354 37.911076
-5.811758 -0.052183 33.278637
-5.635299 0.681890 32.985931
-5.300722 0.503335 32.977562
-9.887257 1.725350 32.070694
-4.366014 1.658394 32.349365
-4.290001 1.539238 32.200985
-4.996115 1.665195 32.716324
-4.622394 2.375974 32.432026
-6.534368 3.075111 32.451748
-6.484667 2.884483 30.062691
-4.817815 3.169901 32.037453
-6.083258 3.073127 31.794546
-7.543669 1.073501 32.493023
-0.118894 0.265316 25.549713
-0.599169 2.121047 26.370964
-4.153699 1.190777 32.353119
-0.785846 -3.012648 37.594959
-0.416540 -0.922999 33.079849
-1.132265 2.633597 26.922382
-1.260698 2.176266 22.091452
-2.858343 2.352678 32.352776
0.236443 1.105692 22.101910
0.191233 1.083120 21.956726
0.282331 0.951117 21.981901
-17.983065 -3.159577 35.922794
-2.410001 2.149239 22.073635
-0.089450 1.287600 24.911896
-9.281116 -5.454608 37.231289
-1.800819 2.250416 22.968519
-1.014044 2.156971 22.045784
-1.260331 2.174594 22.087328
0.131781 0.435998 22.747072
-0.470238 2.217563 22.334034
-4.459424 -1.124087 33.044697
-0.185371 1.107287 26.066042
-1.119245 2.499910 25.213970
-0.083176 1.127861 25.071558
-0.783932 2.052173 30.232340
-9.872128 -0.795093 26.755695
-10.216319 -1.028181 27.142817
-14.908387 -10.223124 0.890062
-9.082480 2.397398 26.546564
-9.142281 1.530798 20.277719
-12.017600 -8.423228 3.242914
-9.620329 -0.648429 25.082861
-24.987478 -17.302055 7.128844
-9.698913 -0.039586 25.951414
-11.637638 -2.688887 24.695602
-10.007155 -0.913922 22.877314
-9.000790 -0.846304 20.693043
-10.420323 -5.301414 11.581128
-10.188145 2.548221 29.194725
-10.459284 2.549613 28.910353
-14.833322 -8.014951 16.096968
-8.665757 2.453541 26.711990
-17.374037 -11.071443 11.642851
-10.165497 -4.798957 12.935850
-10.641029 2.538060 28.573828
-10.366031 2.540416 28.467495
-15.658491 -9.565470 12.801398
-21.947195 -14.037513 11.159653
-8.988886 -0.831973 20.742897
-3.103223 2.821723 31.760191
-3.745711 2.806220 31.845465
-5.975490 -0.080693 35.255322
-1.100980 2.475119 25.216791
-10.284999 0.687815 26.850817
-10.456900 2.419311 29.533718
-10.496305 -0.344182 32.582748
-9.492376 -0.486736 24.111467
-10.076540 0.234437 31.171349
-6.082707 -10.371069 4.702767
-4.413738 -0.824197 5.596993
2.428427 -1.735920 8.702515
1.014915 -4.953271 5.642551
-0.303760 1.461543 26.447083
-0.044531 1.509674 24.288446
-1.903060 2.386054 24.765848
-0.606736 2.383214 26.503651
0.079622 0.387487 23.987461
-19.217098 -3.342010 36.623154
-2.469105 2.366044 24.692739
-8.971292 -3.618278 40.071140
-0.039057 0.476842 24.797588
-0.318032 0.926133 26.521456
-0.013182 -0.322939 24.812746
-0.022055 0.203200 24.779030
-5.628251 -2.901611 38.953793
-7.674115 -2.758501 38.955055
-6.008042 1.217026 32.825180
-0.170165 -1.548982 36.881847
-10.494008 -3.841262 36.753246
-3.431801 -1.481758 34.420349
-0.329159 1.555141 27.335102
-2.704201 2.708208 27.859653
-13.523803 -2.864730 36.535305
-8.196285 0.064476 32.652622
-3.207569 -0.734388 32.752319
-11.143382 -12.544932 2.415784
-0.136205 1.152049 13.426413
-4.625868 -0.049272 4.497237
2.637360 -2.344641 3.845028
-3.920176 -2.591311 3.670015
-3.533052 -2.063402 4.675087
-10.691543 -14.230323 1.160259
1.232602 -0.965567 16.212177
1.396167 -12.878021 4.389613
-1.100775 -5.723044 5.367509
-10.832221 -10.022922 3.045542
-8.630313 -1.373783 36.802650
0.909118 -3.019762 35.649632
-0.364029 1.905193 26.848164
-8.748057 0.712317 32.509308
2.097499 -5.173979 38.719719
-4.226453 2.437593 25.303099
-15.869453 -5.659446 36.260555
-1.979184 2.343244 24.228260
-1.984952 2.352046 24.248404
-8.346384 0.010673 32.767399
-5.863061 0.720263 32.971073
-12.592388 -2.530527 35.956768
-5.725646 2.885824 32.382164
-7.308150 1.844994 32.690517
-8.515409 1.804907 31.998035
-7.227188 0.542190 32.894905
-13.171411 -2.713069 36.307941
-16.074608 -4.046519 36.932194
