-8.584899 2.787364 29.856112
-8.566674 0.223532 30.917704
-25.037050 -9.951262 16.574434
-8.767505 0.758010 31.697613
-7.442332 1.844141 32.921288
-6.812192 2.283649 32.846176
-6.580053 2.246523 32.737961
-30.331785 -10.541636 36.629890
1.136416 2.300990 30.089458
1.080074 0.206510 32.334534
1.079389 1.838487 30.637848
0.184446 2.838627 30.468073
0.606800 2.837998 30.651905
-0.393260 2.008944 32.396088
-1.586415 2.703518 32.192219
1.328131 2.007816 24.996460
0.270239 2.364862 25.104715
-4.509652 -3.208338 46.280720
-5.008202 -2.370752 38.552807
1.665632 -4.776898 40.589794
-0.797185 2.181334 22.838646
-3.470842 -5.761017 38.728874
-0.230186 2.199050 23.601938
-2.689992 2.453269 25.691965
-0.857885 2.232345 23.782463
-2.569358 2.914744 31.812199
1.253652 1.800663 25.243505
-2.167766 2.237468 23.484913
-1.583324 2.513852 26.104277
-0.237595 2.215508 23.643574
0.031382 2.321662 24.982021
-1.758561 2.488554 26.737045
-5.326746 -5.537410 37.996838
-0.955363 2.838421 30.509174
-2.964792 2.821127 32.567451
-0.965883 2.704270 32.108715
-0.933981 2.356533 32.066273
-0.182851 2.929230 30.970407
-6.392928 2.762733 29.011688
-6.455229 0.815612 33.632519
-8.398110 2.822820 30.470102
-5.429043 2.783675 29.282074
-1.591108 -8.426397 -2.705825
0.090885 -4.638995 6.757585
-7.742311 0.681542 16.772484
-7.897520 1.029542 13.033653
-1.481098 -4.616827 6.196505
-5.262009 -6.109712 5.248992
-7.380778 -1.172640 9.562489
-0.211432 -4.485350 6.494194
2.180476 -5.322659 10.386824
-4.743968 -1.973531 5.017380
-3.471093 -2.277430 4.500154
2.253396 -4.422925 9.759803
0.068212 2.086720 22.216394
0.794509 2.091127 22.374014
0.612274 2.565070 27.574745
0.060333 2.078361 22.192293
1.659290 -1.210808 33.036472
1.325089 0.240426 23.580893
-3.612003 -6.199937 38.962727
1.239793 -0.472819 30.360498
-0.441390 2.090380 21.889782
1.372093 0.053790 22.120874
1.511649 -0.611680 21.323885
0.591617 2.077980 22.213966
1.352999 1.950210 21.240961
1.352571 0.868100 21.404987
-7.090639 -5.456823 38.155472
1.288466 0.050283 24.196085
-8.547972 1.432792 26.167925
-6.392810 0.838331 33.633598
-17.045549 -3.827340 37.346691
-8.407640 -0.147657 33.493923
-4.848278 -5.778553 38.946896
1.290873 1.957502 21.712988
1.420554 1.071422 24.323086
-0.080232 0.181704 12.622280
-0.189165 0.658524 13.888299
-15.734213 -14.447746 4.829264
0.180526 1.160335 14.160749
2.048450 -4.064337 10.746246
-4.690058 -1.996136 4.873233
-7.954782 0.681131 21.745943
1.740664 -2.129495 3.527736
-7.721098 2.154372 21.831377
2.267443 -4.258107 8.812794
-7.732121 -0.699081 15.045349
0.140329 1.176057 14.247003
-0.244685 1.036088 13.061976
-4.289817 0.529954 4.935861
0.023065 0.693739 13.750907
-12.138903 -9.218301 3.342141
-12.099713 -9.271373 3.529564
-11.187010 -8.001094 4.136547
1.300078 0.536332 26.746597
-0.498370 2.585692 28.124819
-9.456569 -3.483746 40.031757
0.855047 -1.292644 33.339333
1.277459 0.255410 27.085913
-8.098031 -0.734642 37.432423
1.633859 -3.638624 37.766872
0.982320 1.825388 26.514141
0.033139 2.516734 25.809902
1.333694 1.170467 23.471617
1.375206 -0.540158 24.302660
-0.450321 2.279444 24.464813
1.414421 0.804581 24.406776
-8.585033 0.279759 30.537424
-3.830905 1.197857 33.332958
-15.683249 -2.608016 37.403175
1.331477 1.457268 25.672836
-1.138286 1.642289 32.901596
-3.937329 2.271842 23.544552
-8.347409 0.085439 28.071266
1.425043 1.094988 21.869715
-8.249720 0.289506 30.090033
1.360486 0.914838 21.971928
-0.298277 2.087398 22.166765
1.294292 -0.888496 23.520897
-1.500275 2.444927 25.918238
0.809126 -1.249964 33.518917
1.004074 2.809463 31.509390
-8.440278 2.451086 25.485422
-14.808322 -8.714864 12.349224
-15.207119 -9.826694 6.368774
-8.489198 0.099499 25.998671
-8.339428 2.589580 27.585072
-19.412537 -16.968412 3.320712
-6.851446 -3.485298 4.960713
-7.311240 -0.010417 10.029684
-4.370245 -0.498394 6.200755
-7.559572 -0.696627 22.959682
-6.411118 2.610372 26.940130
-8.654205 1.007010 27.738857
-4.081021 -6.620200 4.635187
-8.599011 2.675625 28.092176
-5.554413 -0.278725 7.168113
-2.731269 2.413059 33.010277
1.143477 0.519179 32.177460
1.044535 1.970421 31.238808
-1.834163 2.130711 32.682812
-2.936798 1.043472 32.956001
-1.328881 2.950133 31.914438
-1.527203 2.904333 31.375648
1.313931 0.967236 26.359993
1.139034 -0.382842 30.221243
-6.282530 -3.981787 37.997639
-15.608269 -5.998863 37.711720
-0.221988 2.860849 31.620607
-5.794867 -7.551934 38.864010
1.772833 -4.171083 38.090969
-6.073165 -4.954154 40.195065
1.463779 -0.522830 22.026188
1.394294 0.503996 24.122265
-1.540769 1.991799 20.868876
1.509661 -0.221925 21.531599
-1.261704 -6.264683 37.864342
-10.155072 -3.337438 37.694836
-0.440728 2.084242 21.878351
1.443816 1.725673 20.650122
-16.855833 -2.709771 37.354340
-8.541632 -0.147693 33.661053
-0.500528 2.371940 24.712404
1.372434 0.294264 22.101835
-0.940956 2.196046 23.050543
-2.262532 2.224637 23.663019
-8.196670 2.479816 27.684116
1.518843 0.711877 21.037613
1.495971 -0.601933 21.274586
1.377263 0.050752 22.133516
-8.618309 2.576981 28.130354
-8.373480 2.749356 30.326059
-0.864467 2.105608 22.219000
1.362929 0.512538 23.925055
1.368518 0.054796 22.113575
1.453413 -0.563014 21.154215
-0.553777 2.076542 22.173157
-22.948223 -11.366849 16.083498
-24.184347 -12.980887 13.016582
-22.299778 -10.929256 16.562799
-25.110493 -11.874650 14.630447
-23.864447 -11.168941 15.745498
-22.306393 -10.923666 16.562321
-23.852459 -12.525767 12.930170
-8.501163 2.782326 29.401756
-22.087914 -10.799960 16.687283
-23.274801 -12.295853 13.786192
-23.024229 -11.074896 16.085558
-8.872221 2.417433 24.900450
-8.808457 -2.765216 38.176830
-6.634870 2.424606 32.571472
-8.572381 2.606668 30.542530
-17.033670 -5.366062 37.400047
-8.600292 2.068863 32.960773
-15.904292 -3.482488 37.488453
-8.380316 0.118746 33.430244
-8.738739 2.098202 32.882298
-8.153508 2.403147 33.066677
-6.465622 3.041820 32.613289
-3.914936 1.912310 33.559071
-7.606818 0.655027 33.132504
-9.326138 -2.346652 37.795628
-4.664487 2.982192 32.029411
-19.839565 -5.861206 36.556328
-3.896543 2.703351 33.379086
-4.958194 1.603664 33.206501
-0.393201 -0.845506 33.203239
0.738152 2.737410 30.511856
-8.330112 -2.322971 37.660213
-4.034900 -1.765085 5.084555
2.210839 -2.337347 3.509213
-8.248824 -5.626436 5.611201
-8.421559 -6.298706 4.110094
-4.619108 -2.316030 4.469468
-3.292168 -0.161237 5.381020
1.954520 -2.279532 3.982085
-7.902524 -0.015083 13.176024
-7.171447 -6.534871 5.094426
1.557723 -3.038723 37.904854
-3.107199 1.194087 32.845798
-3.708480 1.249086 33.119736
-7.328163 -2.495231 38.074482
0.533866 0.409779 32.986416
-13.977042 -6.892023 38.103680
-2.871739 2.380329 33.287621
-0.462034 2.184499 23.117914
-0.721315 2.163808 22.930696
1.462328 0.802370 21.936216
1.363206 0.281109 22.727015
1.453106 -0.216886 27.543970
-0.255725 2.121039 22.235584
-0.922154 2.412165 26.336714
-1.559261 -6.019246 37.847515
2.675318 -0.257562 11.459104
-3.112986 -3.430096 5.283494
2.133526 -2.257648 3.689516
-3.079864 -8.214372 5.649414
-0.015029 0.601943 13.452022
-7.724633 -0.953015 13.165857
-7.658776 -0.187127 13.094950
-4.732734 -3.511520 5.027242
-8.472936 -6.609551 5.331068
-7.681430 -0.199743 13.003450
-2.620328 -7.885892 5.933250
-7.711488 0.809884 15.526379
-8.206025 -17.550468 -18.482983
1.977573 -7.749575 4.843863
-7.780381 1.004988 10.172496
-3.997012 -2.362545 4.287287
-2.380775 0.167869 5.229165
-7.725478 1.318024 15.751745
-8.705812 2.619002 30.601538
-20.928747 -8.084574 37.234982
-8.618452 1.929855 32.985306
-8.331923 0.980305 30.161591
-22.666460 -7.718789 35.260006
-8.615294 2.854630 31.587971
-7.310036 3.007913 32.724072
-23.641359 -8.168165 35.476665
-30.717152 -10.262512 35.583942
-8.402099 1.910336 33.204117
-14.228661 -2.878117 37.921436
-8.801016 -0.392136 31.091255
-8.623165 2.708548 28.702169
-8.412317 -0.503956 28.641516
-6.434286 1.846844 32.965809
-6.577044 2.415489 32.624054
-8.424765 -0.196173 31.850792
-6.594356 2.283765 32.769154
-6.823792 0.886127 33.181393
-8.494014 2.562360 32.843742
-8.862310 -0.404986 33.576557
-22.566984 -10.187959 16.724360
0.734334 -4.035516 37.471077
-0.562254 2.291563 23.652044
-3.089950 -5.253037 38.368507
1.360059 1.961103 23.691448
1.363674 1.777611 24.542213
-7.243058 -0.747137 37.660522
-13.794749 -2.591216 37.818901
1.289917 2.126103 24.248060
-0.465990 2.050749 22.145559
-0.477843 2.121899 23.261484
0.003373 2.040958 22.096876
-0.734697 2.152865 22.302404
-0.467714 -5.336192 35.684269
-0.696097 2.098852 22.179941
1.379064 0.009558 24.094084
-0.425078 2.063350 21.843227
-2.173359 2.216895 23.769529
5.162128 -7.551697 48.050205
1.490630 0.161482 21.758396
1.354574 0.021349 23.998760
-1.488089 2.422273 25.837845
-5.147393 -3.080566 38.974033
-0.550945 2.271981 23.642040
1.394305 1.376471 21.535511
-2.777965 2.515471 25.919159
1.372474 0.652900 22.078352
0.010320 2.001454 22.013042
0.551102 2.132261 22.344330
1.400854 0.000301 24.208370
-2.371541 -1.211681 33.466228
-2.951866 1.064458 32.993950
-15.799752 -2.631110 37.548859
1.273328 -0.005298 29.418116
-15.794740 -6.070213 37.936058
-8.220428 2.738868 30.136444
-4.540174 -7.405465 38.592850
-3.090593 -5.272110 38.232784
1.284345 1.972212 20.935961
-5.602836 -5.713433 38.572529
-0.427622 2.060688 21.801319
-0.783954 2.171025 23.202593
1.433127 1.664699 20.476519
-0.273200 -1.452983 34.037079
-12.561050 -5.339139 37.787106
-0.922452 1.347169 32.736076
-0.280107 2.349300 33.177887
-6.079453 -3.436933 40.006973
1.099579 -2.715605 37.718731
-16.458895 -6.416896 37.816101
-6.716575 1.932469 32.927299
-5.484217 0.027942 33.283539
-8.643626 0.308304 31.935328
-8.551125 1.916282 28.927439
-12.915518 -1.784592 35.976227
-6.902837 1.461689 33.342354
-8.498569 1.029230 33.057278
-4.784831 0.086002 33.701290
-13.685344 -2.671666 37.597397
-8.408591 0.413835 32.309444
-3.846729 1.956726 31.865015
-8.324656 1.313765 33.368332
-11.433416 -7.033057 2.797917
-8.103433 1.845788 19.022799
-8.158649 -0.231123 24.929686
-8.332707 0.600620 27.384140
-8.095404 -0.563231 21.871052
-9.526443 2.543119 22.968758
-6.974507 2.646106 27.499146
-16.797209 -9.404932 17.271120
-8.201792 -0.580432 19.047913
-8.262338 0.559446 27.362511
-19.951805 -13.359012 9.172415
-49.092613 -38.525024 -17.892626
-15.539385 -7.909686 19.024908
-8.360305 2.496896 26.229378
-17.282158 -9.870787 16.706619
-8.722689 2.046221 27.566011
-12.467619 -10.407900 2.101703
-39.386448 -29.731106 -7.235506
-8.246977 2.581122 27.585945
-4.419498 2.578161 33.243900
-12.661759 -1.707688 34.613121
-4.313088 3.070874 32.885105
-4.545765 0.449376 33.576088
-4.825529 1.645680 33.178299
-3.720235 0.939584 33.317127
1.409053 1.048667 21.269423
-6.745162 -5.120959 37.245480
-8.973128 -0.249102 38.956169
-0.349851 2.035756 22.072050
-0.345416 2.171575 23.237469
1.103075 2.168809 29.453453
-1.371252 2.028013 21.288723
-1.297300 2.111894 22.128885
-0.224583 2.237089 23.833475
1.362499 0.872429 21.966343
-0.884647 2.113450 22.248938
-7.158957 -2.762346 38.106773
0.234029 2.065014 22.126820
-1.524758 2.100384 22.077818
-11.217525 -6.666954 37.764965
1.328177 2.028980 21.591234
1.183720 2.089457 22.387615
-0.698449 2.053338 21.720081
1.301067 2.152229 24.307535
-3.583140 2.277761 23.552498
1.268131 2.107273 22.412552
-7.151598 -6.793949 38.318382
-4.407195 -0.725944 38.000164
-13.752812 -5.324990 37.660175
1.415521 0.537753 23.820738
1.414620 0.276244 24.238033
1.770835 -5.868304 37.715858
0.410326 2.430388 26.349171
0.424233 -0.109577 12.341661
1.375005 -9.805783 3.774006
-0.191133 -9.848847 3.874748
-7.440433 -1.233576 8.629344
1.957496 -2.044621 3.516811
1.398086 -6.068377 5.733291
0.395853 0.630087 13.577744
-6.033678 0.024205 33.573433
-3.863129 2.962000 32.103626
-6.503483 2.374668 33.073654
-3.438049 1.053965 33.217110
-5.864663 1.757315 32.882458
-0.891156 2.916460 32.113705
-1.901742 0.802306 32.805969
-1.857180 0.370820 32.734264
-4.948910 2.111866 33.368092
-2.577385 2.787489 31.053593
-1.804643 1.000567 32.686832
-4.479517 1.514425 33.314980
-0.554662 2.148276 32.517845
-2.074253 2.897541 31.394684
-1.547951 1.739094 32.833588
-1.585788 1.274833 32.705830
-4.330473 2.602836 33.281185
-1.272559 2.716696 32.231121
-2.087844 1.103586 32.705025
-6.824917 2.762490 32.814507
-10.893310 -2.503445 37.464977
-1.956417 1.713660 32.536385
-2.999701 1.144842 33.518559
-1.874227 0.983210 32.790726
-1.960519 0.698633 32.811916
-1.789248 1.315831 32.884464
-2.717153 2.964621 31.846058
-2.605373 2.491051 32.641750
-1.159203 2.173255 32.735359
-2.112516 2.917474 31.344896
-5.351444 2.358865 33.511280
-2.832757 2.963526 32.134216
-5.043365 2.387195 31.812796
-1.828395 2.439438 32.391010
-2.945254 1.115059 33.104607
-2.074963 2.928192 31.371210
-2.424118 2.994545 32.250053
-5.500677 2.487774 33.632832
-1.379852 1.544690 31.087036
1.286060 1.628245 26.965740
-0.317351 -1.373381 33.583141
-2.908960 1.179087 33.356945
-1.030766 -0.675378 32.752666
-1.005787 2.847306 30.204374
-1.492402 2.603885 27.809759
-1.770286 2.638436 27.924849
1.269480 1.575094 27.508926
1.283802 1.135087 27.218214
1.264261 1.102706 27.700825
1.081222 1.441904 31.774309
0.441035 0.366076 31.658823
1.155843 2.492369 29.899090
1.108412 2.415089 29.933226
1.267893 0.613911 27.798779
-0.313228 2.232735 23.658281
0.906861 2.400247 31.136847
-8.447621 1.517629 26.068241
-13.751464 -6.603035 37.720280
-4.345642 0.871538 33.533863
-0.527038 2.636420 28.289011
0.505849 2.449893 31.443558
0.885237 1.755134 32.938660
-5.893085 -2.741912 39.655842
0.971547 2.558130 27.973461
2.080242 -1.842322 35.641655
-9.956948 -3.271324 37.467567
1.219634 2.164900 28.044884
-0.314816 -1.273945 33.305676
1.025353 0.011612 31.687729
-5.780981 -2.688406 39.433472
1.302484 1.539028 26.833345
-4.132405 0.427449 33.474426
-7.776775 0.627377 32.720367
-4.850791 2.997420 32.741718
-11.155744 -3.550184 38.113056
-1.935828 2.917999 31.215881
-12.082122 -1.561343 34.380180
-8.465716 2.831570 30.042360
-8.667542 1.919151 28.911629
-8.651370 2.654559 28.841898
-7.289515 2.607858 27.403147
-11.544019 -3.419069 24.605473
-19.241745 -9.080891 16.235023
-8.142637 -0.435573 28.446297
-8.062922 1.589025 24.322741
-8.277577 -0.252153 29.911116
-14.934190 -6.108383 21.191278
-8.084673 2.181894 24.220278
-18.920204 -8.835436 16.561691
-8.209659 -0.470902 28.424456
-14.367293 -6.853184 12.166496
-7.299847 2.609423 27.384571
-13.868021 -6.421292 13.119830
-23.539129 -12.689488 12.621817
-19.828032 -9.831323 16.142948
-8.809876 2.693074 28.740734
-8.470121 2.443537 25.238106
-8.255263 0.992120 27.347715
-13.859274 -6.412474 13.122657
-13.795837 -6.364681 13.261780
-7.977831 -0.176363 24.626444
1.630517 -1.159448 33.220909
1.373570 1.797754 19.901041
1.536933 -0.299021 20.719496
-1.486354 -2.167681 37.366055
0.687963 2.061407 22.618853
1.410389 1.369803 19.391546
1.349339 1.789637 19.389688
-0.287428 2.055573 22.111513
-18.067099 -3.952450 40.046490
1.482756 -0.030740 20.659590
0.058543 2.367892 25.408468
1.463383 0.871268 19.619085
-2.430346 -0.013784 32.987602
-17.820385 -3.978608 39.730877
-0.301147 1.941697 20.397633
-8.413459 0.150647 27.436068
1.413042 -0.433036 22.371706
-1.353895 2.088184 21.842747
1.324429 0.724253 19.896500
0.790091 2.064143 22.319263
0.040599 2.088392 22.047438
-5.569386 -6.289942 38.477215
-1.667392 0.686322 32.723392
1.089495 2.384565 26.209946
1.335528 1.528991 23.602720
0.731376 -6.000941 37.960499
-5.610708 -6.575262 38.504562
-17.307194 -2.729194 37.785034
-11.877526 -11.844272 4.593939
-11.257047 -12.928534 4.294869
-13.950233 -11.620983 -2.792552
-6.178282 2.551993 25.605146
-11.787859 -12.717050 1.557871
-3.320196 0.435447 6.723192
-7.540401 -1.898965 10.396437
-3.062866 -0.118620 6.130667
-3.164126 -2.301397 4.662848
-8.416598 2.612193 27.658640
-8.405654 2.655896 27.815756
-12.913960 -11.089652 3.910192
-14.359166 -12.239226 -4.439692
-3.105564 -5.559775 4.614858
-4.697238 -9.680517 5.788003
-3.044793 -8.480634 5.190532
-6.857472 2.487428 25.591360
-8.028600 1.012359 24.447550
-3.625518 -3.292601 4.766553
-8.328913 0.091418 27.230436
-3.093314 -5.507129 4.713171
-0.080378 1.684975 32.719593
-0.003025 2.317790 31.531542
-1.369633 2.672904 32.258648
-3.152269 2.354889 33.269527
-0.767975 2.108052 31.962194
1.053387 1.803770 31.410778
0.440448 2.369202 31.144085
1.032275 2.057415 30.621157
-5.046828 2.598761 33.429405
-8.955831 -0.302166 34.261757
-6.710209 0.906402 33.615913
-3.995276 1.919166 33.366516
-4.202770 1.950095 33.612099
-10.971356 -3.594087 38.351063
-11.035440 -3.613107 38.381023
-3.592235 2.721991 32.724407
-3.487390 3.057504 32.836529
-4.820344 2.818313 29.665627
-5.236917 2.942370 31.012840
-8.809088 1.997362 31.790470
-8.605628 2.504326 27.650963
-8.680029 0.449405 27.730606
-3.494510 0.639971 33.508179
-8.709605 2.060811 28.849552
-5.616993 1.134303 33.789593
-4.140532 2.949878 31.760056
-8.409981 1.715634 30.103701
-4.387834 1.982426 31.954830
-3.757440 2.810290 32.652546
-2.831103 2.879535 30.881357
-0.403801 2.804526 30.427217
0.837645 2.173181 31.842957
-0.675273 0.241940 32.594498
1.120844 0.538830 30.903435
0.326592 2.201003 31.817085
0.664787 2.144471 32.077656
1.069355 1.382841 30.635695
1.060930 0.582418 32.140961
1.157901 0.561724 31.803936
1.160739 1.055356 30.472084
1.168574 0.386070 30.109413
0.890330 -1.266529 33.374786
-1.589159 2.707364 32.213604
1.160737 2.348992 30.031557
-0.656051 2.347521 25.788576
-0.823423 2.472714 26.587303
-6.672397 0.689020 33.160088
1.337007 0.908488 25.955746
1.387404 0.455704 24.323397
1.401308 0.344673 24.048605
1.374072 0.800417 24.179863
-0.864550 2.306437 24.970978
1.364251 1.370396 24.765821
1.303007 0.352458 25.892025
1.090608 -0.134846 31.776403
-6.140268 -4.957395 39.898315
-2.047078 -1.614480 34.471027
-8.391433 -0.136410 33.441639
-3.085804 2.975617 32.258060
-8.188273 0.556586 32.659901
0.723224 -2.164690 37.275501
-2.631368 2.942270 32.356205
0.636533 1.934295 33.373508
-5.158319 0.954614 33.380116
-5.454754 0.404859 33.602242
-6.967655 0.771179 32.857380
-8.118628 2.410100 27.979610
-14.557707 -2.897800 37.995583
-6.865638 0.866151 33.590050
-5.218513 0.942663 33.426647
-8.422271 0.400807 32.030037
-6.535546 0.982939 33.355148
-8.165517 -0.195963 29.957466
-5.330453 1.535790 33.466282
-14.088473 -2.441670 37.542770
-6.396688 1.687548 32.766838
-8.678900 -0.126054 33.236275
-8.625938 2.143233 28.601419
-4.853927 1.095100 33.030766
-6.067430 2.971414 31.500769
-5.318087 0.463374 33.480206
-8.306870 1.709207 30.105083
-14.924926 -3.010854 38.226803
-8.542886 1.514943 26.014507
-5.303098 1.612501 33.484303
-5.252678 1.175992 33.481663
-8.228137 2.331664 27.218815
-14.298145 -2.529547 37.662506
1.376231 0.246868 22.094471
1.129204 0.797539 32.228317
-4.119707 -0.245581 34.305168
-1.324722 1.051978 33.046745
1.006538 1.313626 32.771568
-2.651791 2.960217 32.545986
-0.998197 -0.475922 32.786400
1.063712 1.888100 32.832062
-3.720837 1.684665 33.345852
-0.300935 2.134871 32.606205
-8.414163 0.168551 27.051558
-8.316660 0.454202 27.914862
-8.295535 0.221880 27.003838
-8.537542 0.071670 26.579283
-4.554954 -0.832354 2.340492
-12.245227 -12.637585 2.950804
-8.419575 0.104053 21.838224
-4.386494 -0.517102 2.234070
-6.637142 2.586079 26.740938
-8.324156 0.957567 27.407984
-2.241235 -0.344109 5.511518
-3.827968 -0.573294 5.449603
-8.245167 0.059830 27.854076
-8.161157 2.551244 27.533995
-8.905427 0.903113 27.519556
-17.666742 -17.335375 0.566598
-1.695949 0.149291 32.858406
-3.157642 -0.318982 34.339100
-1.101850 1.328916 32.835606
-2.443584 3.016322 32.156410
-3.602481 2.860095 30.431051
-6.700910 0.670764 33.066509
-2.202347 2.803033 32.418499
-2.611179 0.067361 33.336731
-1.812590 2.127696 32.633678
-6.371387 1.913065 32.746056
-1.239501 1.079634 32.881203
-4.044475 2.772030 33.084496
1.379122 2.033197 21.585844
1.703721 -2.292053 37.358330
1.331804 1.783820 25.084215
-11.093251 -0.817919 37.132809
-6.897604 1.497410 32.787945
-8.352098 2.496954 27.165419
0.407919 2.100836 22.096535
-0.226775 2.227565 23.789288
-5.849672 -7.512791 38.887970
-4.013721 2.307012 23.673574
1.206583 1.956557 28.941870
-9.743957 -0.735950 37.003895
1.131379 2.147125 30.012850
1.180037 0.801286 30.476896
1.248741 1.724150 28.244881
0.461333 2.130702 31.938530
-1.375105 2.670343 32.242428
1.057767 0.587163 32.118664
-2.797698 2.848886 30.348066
-0.735019 -0.552962 32.995205
-8.665507 2.162726 28.715849
-23.898094 -8.581746 15.031988
-9.015162 2.924659 31.533875
-22.711771 -10.283991 16.593861
-8.464116 1.026444 33.053158
-18.258659 -7.828956 17.183962
-22.941816 -8.130934 15.755072
-22.595154 -10.213868 16.656784
-8.640699 2.157266 28.723549
-8.426699 -0.204629 31.861860
-22.183567 -8.140063 16.105021
-19.603975 -5.375564 33.463760
-6.204449 0.517580 33.367424
-23.014538 -8.564629 15.453876
-18.178455 -7.774225 17.262194
-11.102495 -1.048162 32.919022
-18.815744 -8.289019 16.939878
-7.240392 1.701117 33.148842
-8.702103 2.700346 28.374578
-6.805321 0.278468 33.587257
-6.536011 3.089162 32.746010
-6.811534 2.242784 33.028305
1.263059 1.977553 28.058004
1.207664 1.205214 28.797289
1.120444 0.376086 30.148855
1.174719 0.670306 29.599352
-2.797949 2.846079 30.347979
-2.911189 1.075608 32.996090
-5.293555 1.132706 33.067371
-2.843455 2.892694 31.326702
-5.311686 2.371399 23.849514
-8.573136 2.446966 25.885008
1.925050 -5.895422 14.865838
-8.244149 2.270695 26.037745
-7.893772 -3.973091 10.280324
0.333759 0.741582 14.260467
2.085185 -1.229995 14.337807
-0.672732 -6.065897 9.114942
1.679526 -4.768740 16.691723
1.651991 1.096657 16.211233
0.489285 -9.739508 3.908841
-4.153233 -9.697378 5.263105
-0.520469 -11.782648 4.623027
0.046328 1.149547 13.931941
1.691449 -0.420579 16.315899
1.767597 -5.671357 16.725136
2.031100 -3.856005 15.574979
-3.829492 2.283685 23.362263
-7.201766 0.817737 9.677207
-7.509105 -0.195763 9.755597
-6.478603 0.973131 9.155823
-6.164292 0.760064 9.850524
-7.555363 0.407574 10.262723
-7.553432 -0.389414 10.289042
-3.601267 -0.200237 7.810699
-5.835154 -0.060103 8.736014
-5.835610 -0.054596 8.527216
-3.847336 -0.639690 6.960284
-5.589182 -0.083778 8.247043
-7.533654 0.920524 10.139144
-7.515235 -0.953298 10.440727
-7.568551 -0.786758 10.349661
-7.084377 -0.220462 2.508422
-2.277505 2.141551 22.469353
-4.821112 2.277606 22.851704
-8.377666 1.280498 23.130579
-0.353909 -14.304601 4.370129
-16.951786 -18.884346 0.212435
-16.163561 -18.221521 1.170439
-16.995050 -14.431808 5.458759
-1.205738 -1.914864 4.995155
0.145185 -5.213729 4.505394
-0.451588 -5.063673 7.176446
1.174265 -5.795558 3.871765
-7.319020 -1.037265 9.764805
-7.830148 0.438887 13.604426
-17.265543 -16.661110 2.507981
-8.418128 2.562370 26.392618
-12.948819 -6.895154 19.339832
-6.858182 2.491787 25.570953
-8.243837 -0.161332 26.480415
-3.279589 0.439076 6.367507
-2.772583 -2.863640 1.100332
-4.149897 -2.108454 6.094756
-18.178886 -18.377195 -19.734140
-19.920332 -20.317307 -2.998032
-8.639361 2.492023 26.104103
-6.993706 -0.185353 5.435918
-11.562857 -28.022055 -25.318714
-7.720524 -0.930542 15.295338
-3.645699 -3.176191 4.976532
-15.765787 -16.803114 0.505975
-12.174637 -11.805953 3.416517
-7.706691 -0.353888 12.534912
-7.891627 -1.081456 12.350738
0.527255 -8.420621 -51.036816
-10.649261 -5.532732 12.038143
-8.447011 2.507523 25.649714
-8.235724 0.304435 26.872370
-7.849337 0.929511 13.364433
-8.177391 2.447201 27.384624
-8.273914 0.960716 27.299360
-3.682434 -0.183089 6.112053
-7.404077 0.905669 7.465292
2.242832 -4.413754 6.332564
-4.884923 -0.140364 6.104723
-6.572115 -0.378175 6.248281
-3.829573 -1.416537 5.003992
-4.250977 0.643542 6.043006
-7.573342 -0.436547 10.342368
-3.261091 0.202467 5.823752
-6.760076 0.872343 6.613213
-6.109764 -4.746774 5.211562
-5.403751 2.434753 24.427332
1.818068 -4.965527 15.658613
-7.789487 -1.211271 15.714861
1.986402 -3.719393 14.559348
-13.493665 -18.362785 1.319574
-13.341532 -16.248848 1.184812
-6.961131 -11.772540 5.168872
-7.299596 -11.677504 5.766592
-7.671128 -1.504405 13.450632
-7.205439 -1.307115 15.941031
-15.655424 -10.376217 12.076065
-12.045377 -6.569848 18.268293
-9.658960 -2.995176 20.646231
-7.794036 -0.823534 14.150694
-7.438926 -1.214306 13.204103
-6.340798 2.492945 25.002735
-14.576085 -11.985988 4.327881
-17.259420 -14.268641 6.551979
-6.928721 -11.618197 5.442020
-15.208438 -9.833772 12.881674
-3.252465 0.416078 6.554693
-9.503364 -2.822390 21.062069
-2.900889 -6.275291 2.517292
-11.379498 -11.813014 3.563075
-10.099855 -7.543920 3.984462
-6.126198 0.361198 5.935425
1.848523 -5.742590 16.616911
-2.368707 -2.091383 4.851052
-4.222893 -0.131221 6.170326
-1.114912 -5.659857 5.152223
-3.783683 -1.831102 4.727425
-1.209760 -4.241477 6.357932
-1.933668 -4.770433 6.602671
-4.032242 -2.311329 4.454171
-5.490923 -0.135129 5.988080
-4.399844 -0.493763 6.070403
-7.304955 -5.231331 5.077762
-7.292583 -1.542077 10.727856
-7.318853 -5.246372 5.048149
-3.806085 -1.710372 5.474868
-1.263129 -4.319548 5.962666
-1.419172 -4.184394 6.305308
1.144283 -4.301008 6.474279
-3.773872 -5.904564 3.514958
-4.077677 -12.119894 5.032995
2.202566 -6.338633 10.717694
-4.043963 -1.450784 5.054615
-7.906365 -12.713769 5.664484
2.297843 -4.268146 8.760939
2.077350 -4.055999 10.705231
-11.362552 -13.332391 3.749761
0.623234 -11.272143 4.109088
1.054254 -11.140254 4.303662
0.547733 -15.664095 4.278969
-12.266995 -16.780582 3.084057
0.467759 -8.484191 3.842289
2.027858 -5.370591 10.817829
2.157548 -0.521853 3.153780
-0.821062 -10.130013 6.099403
-8.232048 0.010112 27.354881
-8.135114 -0.266016 26.568913
-8.253492 -14.755032 -8.533756
-7.299822 -1.546116 14.642710
-16.619675 -18.040115 -5.895315
1.583248 -8.504853 3.205708
-5.858018 2.529078 25.467745
-7.766965 2.459967 25.003153
-7.348713 -8.649501 5.079718
-12.527839 -12.567533 4.842846
1.207030 -9.014549 4.130301
1.988089 -1.146558 15.372205
-14.838948 -14.790197 1.579908
-7.964964 1.183185 18.380287
-7.571705 2.061693 21.107180
2.075585 -1.633360 9.549706
0.634326 -9.749950 4.074005
-13.117443 -12.357607 3.338734
-11.968051 -12.037641 4.079326
-3.820902 -1.453631 4.886316
-1.457525 -0.265932 5.655166
-6.299855 -0.153079 5.734543
-6.412081 -2.367546 4.945454
0.581746 -5.446078 5.000125
3.177408 -0.002522 5.449802
-1.013139 -3.932146 4.800364
-6.504507 0.097304 5.947161
-7.874559 0.289073 5.100436
-4.365059 0.612786 6.168548
-8.137084 -2.289083 4.365527
-9.999356 0.886244 6.958134
-4.512201 -0.673856 5.204225
-11.765465 -4.672290 3.541219
-7.832140 -2.264271 4.458427
-7.510837 -3.498840 1.626222
-4.430064 0.573153 6.365777
-6.174057 -2.169360 4.859139
-7.241588 -2.186834 4.642900
-6.207455 0.633082 6.275050
-6.206859 0.092288 5.847834
-10.956217 -2.062940 4.005485
-6.498230 -0.242907 5.041286
-7.438187 0.929626 7.366373
-7.589830 0.652758 5.590143
-6.146266 0.188274 5.923478
-7.059823 0.008627 5.509280
-3.078584 -2.878715 4.769025
-5.391172 -0.254977 5.973431
-5.353439 -0.263806 5.673682
-5.954828 0.608903 5.865965
-8.214354 -3.571043 4.216962
-3.792231 -1.362705 4.980074
-5.966106 -0.132525 6.057746
-5.039025 0.638133 5.920122
-8.536763 -3.549833 4.866168
-4.112351 0.646947 6.151140
-10.911860 -3.393514 3.789431
-4.483893 -0.600653 6.229524
-8.633614 2.473629 25.675646
0.474694 -9.651793 3.988667
1.071644 -11.174450 4.308858
-8.572544 2.508455 26.542051
-6.894783 2.352269 22.822947
-8.467257 -13.088175 5.487456
-8.449257 2.461836 26.818392
-7.387418 -10.107106 4.137896
-0.252448 0.216472 12.957381
0.975284 -5.334217 6.362329
-13.455449 -7.533193 16.585035
-14.645418 -9.539030 14.388385
-9.520651 -42.964302 -74.765800
-7.624720 -0.662596 23.473574
-3.623507 -8.479174 5.566470
-0.430713 -11.994042 4.282029
-8.315163 0.084291 22.488430
-9.670346 -80.904839 -106.318306
-7.681453 -11.495816 4.869394
-1.506903 0.504675 16.484035
-7.708241 -9.563543 3.345636
-0.265005 0.216384 12.985785
-17.230230 -13.898123 7.875233
-12.168286 -16.018320 3.416415
-5.867100 2.511731 25.553486
-12.544104 -8.693377 10.835534
-0.704545 -5.760273 4.899622
-14.697431 -15.306112 4.138614
-16.826509 -21.776381 -4.071371
-7.901948 -11.830788 -1.712575
-7.796698 -0.906661 22.815132
1.955825 -4.227334 6.439496
1.624896 -0.807254 7.345048
-4.249282 2.225371 22.492504
3.158497 -1.354669 3.049546
1.420415 -11.116808 4.280791
-6.846696 2.606388 26.707327
0.493630 -0.152859 7.772398
-6.292856 2.544020 25.607487
-0.899381 -6.014000 4.084365
-1.810905 1.095794 16.240118
-4.428677 -9.871682 3.145322
-11.790686 -14.809073 5.136316
-4.276058 2.294562 23.152361
-6.199015 2.498543 25.741783
-6.870830 2.546315 26.463646
-6.260253 2.538166 26.020069
-7.904018 -12.896968 5.352977
-5.403130 2.226876 22.198263
-5.583969 2.539631 26.020691
1.745724 -6.200877 5.201245
-8.797498 2.543636 24.678246
-14.267825 -10.749253 6.439540
-3.063187 -6.653654 5.315335
-3.845297 -1.493213 4.866210
-10.484170 -6.724676 7.075227
-8.549743 2.471614 26.249043
-8.557064 1.545488 25.992544
-13.813018 -11.371857 -2.212929
-7.896864 -0.141682 13.130232
-3.047113 -3.533109 4.885789
-5.750824 -9.088467 8.031501
-7.437386 2.499025 27.384007
-8.240649 0.577875 27.544968
1.010679 -16.107218 2.728903
-8.194381 -0.571776 19.049873
-0.228388 0.214462 12.856308
-12.789384 -11.885127 4.088641
-8.197037 -12.147075 6.236460
-3.649195 -0.135442 6.168131
-3.619967 -0.692466 6.110729
-2.436585 0.173133 6.201616
0.033548 0.877807 10.475584
-3.444710 -0.637822 5.833097
-3.577491 -0.797136 6.094850
-3.699234 -0.703095 5.977359
-2.778706 0.431964 6.377190
1.871851 -0.390669 10.129095
-3.628257 -0.692236 6.117615
-3.696995 -0.721109 6.060874
0.063506 1.033566 10.744991
-3.621304 -0.695305 6.112458
-1.199353 -4.567601 6.189375
-7.534070 -2.616957 4.628567
-4.726820 -1.949404 5.010781
-7.409265 -2.844933 4.598434
-6.488091 0.235773 6.035834
-1.433330 -4.591114 5.692594
-1.555917 -4.897464 5.476489
-7.676831 -0.002031 4.731485
-3.118935 -0.371077 5.618291
-0.539912 -8.659018 4.345845
-7.718018 0.385868 17.891209
-7.283130 2.500962 25.381651
-11.197407 -14.230968 4.214842
-12.108330 -15.201629 3.637618
-8.524548 2.448407 26.069675
-4.022082 -2.326293 4.687730
-12.636286 -14.716400 4.968707
-4.727378 -1.916903 5.354035
-1.830066 -2.049863 5.083310
-2.238289 -0.355706 5.494279
-12.221053 -9.935198 3.196418
-12.695433 -14.848015 4.755540
-1.336973 -4.238557 5.330965
-14.185480 -11.376781 5.714300
-12.345859 -8.770007 4.621012
-12.469093 -8.887833 1.120762
-7.876765 1.739523 20.220402
-8.000664 1.814350 21.246382
-8.271311 1.703173 18.842257
-12.247160 -8.595091 4.942288
-8.207761 2.581553 27.295612
-8.738946 2.686818 28.836840
-7.946880 -0.532679 21.572733
-12.638988 -7.845615 4.086178
-7.959721 -0.546823 21.496759
-12.859064 -8.862730 3.545803
-11.734703 -7.908551 6.803622
-16.404343 -9.154686 14.667296
-12.886042 -11.047356 0.458505
-17.015720 -10.523167 -0.435148
-8.166967 -0.439967 19.181934
-13.811390 -7.456769 15.487036
-8.217785 1.270164 30.172440
-8.408265 2.475195 26.033096
-7.920351 1.768392 21.489218
-12.612580 -8.533493 4.411444
-14.013203 -7.672549 15.130006
-8.215333 1.182457 20.233910
-8.448173 2.370083 24.794348
-24.074203 -14.508976 11.210213
-7.228956 -1.512434 15.025202
1.149481 -5.225926 6.518149
-7.680839 -1.004656 13.593269
-16.550270 -19.140018 -0.217110
-8.445628 1.441389 21.650328
1.182782 -6.691676 4.094898
-1.461110 -5.972404 5.517362
-6.805992 2.493272 25.610325
-4.704165 -12.503246 6.456833
0.073714 -5.504026 7.639003
2.063273 -5.378160 10.730835
1.725008 -0.611932 9.463292
2.126502 -0.549489 10.517982
-8.033988 0.030002 10.337293
-10.687430 -4.568916 3.752364
-9.184362 -0.683233 10.297348
-8.966731 -0.724653 10.429104
-11.168318 1.055557 10.738798
-7.506505 0.998358 9.628793
-7.566015 0.150023 10.261481
-8.037820 0.169681 10.496234
-7.925593 0.120310 10.515263
-7.885949 0.116622 10.550561
-8.081562 0.250035 10.473469
-8.512756 0.491473 4.684822
-9.875915 -0.532439 5.490794
-7.455300 0.891737 10.117767
-8.438717 0.926726 10.621457
-5.888129 -0.049651 9.382217
-7.588842 -1.840309 9.405253
-7.374603 -0.116204 10.060312
-12.700640 0.088523 2.353146
-13.977088 0.709799 7.913301
-14.148616 -2.491241 7.183185
-9.930605 0.897543 6.409671
-14.132806 -2.493656 8.182050
-12.012318 0.903627 9.367909
-14.110705 -1.227556 7.986037
-14.231163 -3.573442 8.214890
-13.736890 -1.903579 9.492931
-14.177165 -3.482548 6.988342
2.005632 -2.015326 14.354263
-4.582258 2.485780 25.696348
1.797543 0.401975 16.094561
-4.156810 2.331215 23.742022
1.947109 0.249827 14.215308
1.965803 -0.858087 7.140022
-3.077085 -12.858296 6.081577
-3.318732 2.292752 23.147068
1.827350 -3.521664 16.440756
-0.327457 -12.937365 4.628496
-5.650708 2.498297 25.594238
-4.534564 2.357927 24.536469
-7.562546 0.119813 10.214109
-7.373853 0.983296 9.397994
-7.209049 -0.038389 10.237211
-7.315727 0.024810 10.069461
-6.529037 0.802879 9.818851
-7.139301 0.030111 10.351511
-7.481870 1.000828 9.090325
-7.353481 0.840273 9.850765
-7.536414 -0.821814 10.405447
-6.544566 0.812825 9.764333
-6.433851 0.911676 9.381530
-7.705977 -0.448728 10.460051
-7.352158 0.003378 9.983898
-7.193549 0.106539 10.237268
-7.628762 0.109747 10.204048
-7.999109 0.310827 4.657801
-7.185744 0.079114 5.580251
2.080642 -2.264802 3.756654
-5.687972 0.580748 6.579852
-3.673566 -3.263595 4.976808
1.036911 -5.226472 6.650413
-6.670990 0.325469 6.281778
-1.530538 -4.438401 6.076237
2.071522 -5.182382 6.583188
-8.444236 2.431978 25.225695
-8.578387 2.513671 27.655718
-7.073115 -1.385221 9.359941
-7.709222 -0.184436 12.913020
-14.497429 -11.032763 5.329551
-14.410908 -7.625343 15.917913
-6.852716 -0.389618 5.748435
-8.129175 2.539189 27.404997
-6.416602 2.517827 25.727865
-4.683179 -8.280894 5.512108
-7.846120 1.488672 17.839270
-6.899451 2.350432 22.789658
-7.110739 2.326746 22.745657
-7.153963 2.466740 25.320866
-8.394347 0.430024 27.788925
-21.661070 -21.577909 -6.906321
-4.513182 -0.620721 5.843727
-14.141845 -7.931547 14.129915
-8.424821 -11.477330 5.637195
-4.576909 -3.932164 10.220865
-4.087350 -6.587767 4.672575
-15.741100 -11.450999 8.570466
-12.692113 -9.867088 3.956404
-7.686840 -1.348742 13.185909
-4.881505 0.709537 33.418663
-6.668694 0.639750 33.475464
-5.637259 1.751496 32.749577
-7.693358 1.330815 33.107552
-9.161859 1.881798 31.862530
-3.902564 2.680489 33.379932
-8.199773 2.558693 27.477102
-4.623250 2.167415 33.509148
-10.755909 -3.526088 38.197384
-4.439456 1.902050 32.134583
-8.377847 1.225102 23.096287
-14.289367 -6.252099 17.197815
-14.377876 -8.873450 8.402816
-8.305302 2.665473 28.083536
-19.202940 -9.112178 16.290241
-8.810308 2.718548 28.494360
-8.232326 -0.244670 27.128746
-14.737182 -7.913926 15.812087
-8.371048 2.637580 27.727165
-8.018617 -0.502411 26.645681
-14.703776 -7.413273 17.823534
-15.606929 -8.244475 16.651550
-8.466757 2.438077 25.199661
-19.066816 -9.828239 16.341730
-8.444080 1.871407 22.845709
-8.727798 2.780637 29.494358
-8.491438 2.377837 25.375101
-3.566915 -2.186798 4.828535
-7.298032 -2.024526 10.297906
-4.329158 0.191600 6.357941
1.122998 -4.311257 6.469659
-7.398357 1.049332 10.097474
2.245347 0.153791 6.147195
-4.047946 0.187453 5.387674
-3.922319 -0.203682 5.772695
-3.468171 -2.268492 4.463134
2.184079 0.200939 3.736125
-2.259370 0.312422 5.239778
-2.252270 -0.048186 5.187906
-8.452566 0.125958 27.034966
-8.516203 2.369620 25.111422
-14.914085 -8.541418 13.934580
-8.562914 2.702923 28.361870
-8.168077 -0.413783 25.751991
-8.667921 1.914582 28.858614
-18.241482 -9.532441 17.102947
-8.327793 1.712539 30.117302
-8.400852 2.744387 29.377975
-8.729738 2.767420 28.946379
-0.194479 0.198172 12.631992
-10.082907 -9.127395 5.078449
1.192039 -8.933386 4.145725
-10.174225 -6.634953 4.718739
-11.376563 -8.093155 4.145777
-11.085481 -7.850341 3.522295
2.092315 -3.148863 9.840974
-7.926736 -5.300875 4.963890
-7.686751 -1.052658 15.744417
0.944452 -9.408927 4.136487
-7.698282 1.245477 12.655895
-7.719318 1.034780 11.502055
-7.373833 0.797414 10.062358
-6.901778 -0.222846 7.062510
-4.119700 0.626578 33.669586
-4.009933 0.773169 33.248837
-6.740097 2.106663 32.691753
-4.650660 1.823811 33.276497
-6.490780 2.906420 33.122841
-4.204271 1.090560 33.462643
-4.447705 2.959937 31.482628
-4.386864 2.476110 33.271587
-8.393457 0.419856 27.809166
-4.808307 3.071883 33.219452
-4.028959 2.413065 33.332005
-5.632220 2.992071 32.434044
-5.375043 2.185464 33.719723
-4.778818 0.401339 33.622715
-5.682482 2.801401 33.553284
-4.549263 2.011310 32.039150
-3.840988 0.901017 33.484619
-5.184659 2.153745 33.555832
-4.746468 1.830384 33.365753
-19.160044 -5.562064 36.362568
-4.292977 1.071806 33.565655
-4.716674 2.884598 30.461990
-6.256894 3.034151 33.214165
-9.140164 1.887270 31.855942
-4.759190 2.179224 33.649956
-5.093568 3.026097 32.507092
-6.584384 1.669126 32.802532
-9.802261 -2.893175 37.938404
-6.347057 0.640017 5.961349
-2.360854 -0.240606 4.879354
-4.134315 0.073886 5.900589
-4.121094 -1.911473 4.556682
-7.597169 -0.061896 10.191688
-5.424364 0.950209 8.551602
-2.355495 -6.279454 5.347330
-4.575147 -0.127320 5.859524
-4.525047 -0.333752 5.126225
-7.511052 -1.823849 10.200809
-5.051222 0.565741 6.083263
-7.712228 -0.658372 15.674937
-7.696337 -0.898374 15.720398
-7.593976 -1.335003 12.846488
2.001064 -5.130645 14.753414
-3.030002 -13.091062 5.671227
1.818609 0.410785 16.067297
1.805703 -3.507992 16.474388
-4.204965 -8.414848 5.607054
-0.375544 -12.756236 4.822049
1.400814 -11.965483 4.413130
-3.822022 -11.605021 5.719403
0.427238 -12.778447 4.334285
2.008712 -2.008825 14.381945
1.778397 -1.041700 16.230076
1.776087 -1.793028 16.297478
1.725520 -0.812721 7.810525
-5.417554 2.420187 24.510029
-6.956232 2.500126 25.353405
-6.653605 2.506285 24.943224
-8.567306 0.684650 21.167107
1.795327 -4.896762 16.576880
-11.929618 -8.045158 5.911923
-3.380847 2.282277 23.246189
1.970121 0.243607 14.198047
0.072001 1.146170 13.872389
-6.413308 2.485366 25.126581
-7.843904 2.385355 24.029943
-5.786132 2.493115 25.502836
-7.184916 2.376811 23.470707
-4.690598 -12.907283 5.904682
-0.171676 1.193896 13.465479
-0.294349 -9.875745 4.203526
2.327417 -2.559746 8.606432
2.258943 -0.959611 6.551671
1.821586 -4.900853 16.507587
-5.673585 0.777608 14.313153
-8.440062 1.537016 26.172909
1.897671 -1.975223 14.567016
0.265670 -0.074766 10.788528
-3.590701 2.192065 21.586206
2.056638 -1.492401 14.399361
-3.860830 2.267272 23.445261
0.861071 0.745202 14.441813
1.942641 -5.415447 14.901656
-7.185829 -14.039752 -8.770685
-4.866381 2.257992 22.788717
1.767386 -5.286469 15.202238
-3.819131 2.282085 23.354233
-9.611700 -4.431994 13.838259
-8.525228 1.541839 26.045706
-6.289769 2.234242 23.393166
2.346252 -2.543866 8.681070
1.801291 -3.509185 16.464554
1.793043 -3.505228 16.476856
-8.293683 0.398522 27.354214
1.964470 -5.109401 14.811501
-6.643982 2.490237 24.994102
1.812283 0.410763 16.074036
1.702576 -4.817376 16.696304
-3.000817 -3.424416 12.655277
-3.341377 2.286431 23.171106
2.019075 -2.001808 14.379786
-16.561108 -17.849964 0.545976
-7.669886 -5.752284 4.196157
1.514930 -1.331613 15.315942
0.924848 -5.041051 16.557970
-8.452400 2.363992 25.668776
-5.834232 2.559395 25.334078
2.273167 -1.114506 9.733721
-6.875843 -1.956950 4.827870
-8.113950 -2.516540 14.790479
-2.193512 0.617899 5.692800
-3.580975 0.382529 6.070423
-4.710073 -1.780566 6.770317
-4.715742 -1.972933 5.024478
-3.746782 -2.334528 4.554541
-14.112456 -8.578493 7.457973
-14.181076 -4.833585 21.556698
-8.003751 0.422510 24.532581
-8.384063 2.045747 21.775383
-6.978786 2.646021 27.509062
-14.488435 -7.841356 6.089609
-7.908277 -0.826591 19.092545
0.056841 0.631322 14.336837
1.894321 -0.589076 7.147197
0.969995 -7.938795 4.151131
0.289381 0.592982 13.969649
-8.103102 -0.261183 24.406082
-8.159885 2.138308 24.042809
-8.669831 2.700763 28.679634
-20.472921 -10.005295 15.027309
0.375761 0.745631 14.208590
-12.082025 -8.942683 5.617192
-7.664969 1.387724 15.634515
-5.108925 0.527200 7.276113
-7.718682 1.378680 15.454597
1.123906 -6.287724 4.050831
-5.333030 -8.766308 5.447253
-12.031091 -9.019603 3.577844
-6.889545 -5.374376 4.959395
1.660651 -0.087356 11.505162
-11.786807 -8.808440 2.772687
1.896502 -6.248832 5.381306
2.322651 -6.986437 5.819153
-3.195089 0.431084 6.204937
1.387722 -7.819486 4.210978
1.397310 -8.712646 4.274453
-8.388574 1.419571 26.266783
-1.623522 -5.488807 5.578460
-8.212939 -0.454819 26.229801
-5.114019 -7.571680 12.954192
-8.502235 2.433339 26.002651
-8.632481 1.511533 27.686935
-6.311218 2.508763 25.597250
-8.223003 2.549932 27.353668
-8.393872 -13.029110 4.834671
-11.968640 -14.869955 3.322744
-7.212120 0.833250 33.369221
-4.972700 2.525937 33.461926
-4.936655 1.968173 32.596169
-3.127661 3.012100 32.436523
-2.393470 1.504947 32.786503
-7.774800 1.013266 10.200179
-2.087997 -4.929608 6.486590
-8.269610 -2.056805 4.822651
-8.077192 -2.234557 4.577619
1.919326 -6.805909 5.004071
0.370854 -5.380655 6.411207
-7.286204 -2.094325 10.130412
-8.115517 0.193102 4.437109
-7.579487 0.112802 10.240993
0.866539 -6.136016 4.276050
-7.598030 -0.072616 10.211506
-8.122848 -2.282943 4.403951
-1.285730 -4.988846 6.882816
-7.562134 -1.742330 10.935468
-8.334134 -5.080387 5.464409
-0.313642 -7.079277 2.929499
-8.132388 -0.250209 26.402180
-4.603321 -5.425637 4.975381
-3.665750 -8.397272 -5.619627
-8.396252 -11.485795 5.677361
-4.672801 -8.193025 5.681786
-7.670861 -0.859994 15.724257
-7.527765 -1.269686 12.944346
-15.819538 -15.960727 1.213215
-7.349691 -3.246234 4.392665
-3.989563 -5.306228 5.452894
-7.099947 2.328307 22.779713
-7.204324 2.614389 27.346905
-5.873435 2.508100 25.535637
-8.171453 2.334867 27.457361
-8.376328 -4.983778 5.468755
-8.194467 0.035046 27.390562
-7.031507 -1.868039 6.943533
-11.429263 -12.136542 4.062094
-7.348953 -1.732126 13.762781
-8.322114 2.480148 25.923494
-14.953446 -13.014762 6.958572
-8.620236 0.997119 27.747561
-8.462678 1.417570 26.130293
-11.894668 -6.450417 3.801888
-8.656301 2.781120 29.165810
-8.160467 -0.184754 26.454540
-8.239862 0.007728 27.339348
-26.196480 -16.188005 9.588452
-20.030325 -11.036404 15.243900
-11.496066 -6.051942 8.963822
-7.963217 -0.869238 18.890062
-8.667051 0.869217 26.877542
-7.888330 1.723649 18.811716
-8.191237 2.667243 28.485752
-7.165819 -7.772477 1.350318
-1.520912 -0.291358 5.044146
-5.656371 0.377191 6.216930
2.215350 -5.798131 7.749479
2.171646 -5.227749 6.653867
-5.648977 0.373421 6.155327
2.203806 -8.053130 4.448322
2.385813 -4.278564 9.141867
1.125227 -5.124987 6.104932
2.226695 -5.161242 9.377798
-1.403119 -4.540699 6.138441
1.790666 0.524550 6.193183
-11.210209 -5.866518 9.545216
-13.140489 -12.613652 2.648506
-14.981213 -10.805205 11.172343
-4.698182 -6.538664 5.559064
-11.254170 -8.119871 3.273155
-10.320567 -5.264856 8.329976
-15.072782 -15.566686 1.731514
-7.323835 -6.381967 5.125037
-7.710821 -1.047894 13.548122
-7.780697 -0.430779 11.968430
-7.707761 0.956073 14.581494
-3.977957 -5.331285 5.544226
-7.004754 -1.384589 9.668610
-7.258051 -1.469463 8.706926
-7.513745 -1.341064 12.629568
-11.545118 -8.757739 8.782207
-13.060760 -12.459550 2.984334
-14.024620 -13.442645 3.669513
-5.481299 -0.372027 6.108967
-8.463197 -5.163343 4.967098
-7.755746 -1.208303 16.773741
-7.704710 -0.880541 15.662854
-7.733092 0.967239 10.377290
2.092970 -5.451188 10.780197
-7.542932 -10.897713 5.694290
1.732485 -6.020291 5.803067
-6.780705 -0.115193 5.633598
-3.062749 -0.089820 6.126105
-4.563306 -0.543512 6.622238
0.081119 1.153840 13.838619
0.454762 -8.537971 3.892353
-7.230953 -5.357708 4.926191
-7.702837 -0.979012 13.365468
-1.285195 -5.298449 5.382030
-7.950227 -0.891508 13.170387
-7.375931 -1.013556 9.652646
0.044695 0.928147 10.409611
0.070069 0.187218 10.954585
-6.347871 0.109390 7.342048
-8.138808 -6.776903 4.647317
-1.468374 -1.009670 -2.356969
-1.908793 -0.055803 5.088159
-7.857765 0.161254 5.198250
-4.570636 -0.591536 5.947343
-3.741798 -2.251245 4.691985
0.026248 -4.342557 6.390124
-4.092346 -3.229042 5.198258
-3.943202 0.408042 6.246498
2.096678 -1.971289 3.729114
-4.865232 -0.154665 4.906022
-3.962076 -0.109907 6.473763
-4.432330 0.860010 7.229488
-7.565187 -0.561052 10.280807
-7.282915 -1.101031 10.198911
-6.737022 0.852720 6.913897
-7.575218 -0.076120 10.282550
-7.340972 1.116818 9.572917
-1.502334 0.053272 5.876152
-1.561679 -0.272013 5.612711
-18.014940 -3.934069 23.107521
-4.498206 2.126108 33.403667
-6.704520 0.786525 33.845387
-4.328562 3.022803 33.031384
-4.475111 1.161869 33.474991
-8.161073 2.340406 33.220406
-5.054181 0.594259 33.521900
-4.007143 1.150050 33.406952
-4.126270 0.924999 33.335609
-5.045283 1.221651 33.092812
2.242577 -9.858802 9.577033
-5.050595 0.333537 5.671517
1.946052 0.065102 15.173339
1.913340 0.062408 15.211644
1.841902 -2.935639 16.087042
-4.014231 0.695674 6.708942
-4.900198 -0.409173 5.502213
2.309802 -1.225309 9.818910
-0.122314 1.208288 13.383920
-7.671396 -1.236454 14.714804
2.344845 -1.211705 3.491345
-2.992391 -0.104632 8.447213
-4.368398 -2.252374 4.759172
-3.424304 -0.141447 5.897878
0.241347 -5.270559 6.615997
-7.972756 -0.546767 10.226729
-4.384441 0.586053 5.139501
1.998001 -2.304904 10.611876
-5.793286 -5.908092 5.159775
-8.069842 0.197596 4.543879
0.065002 0.653502 10.655404
-1.972136 -17.583975 -17.276127
-3.526376 -2.890149 3.352538
-7.643875 1.103181 10.810877
-7.525665 -2.358182 4.104790
-7.659592 -1.464216 14.306133
2.440487 0.555939 6.071802
0.466160 -6.553097 3.633073
-17.716991 -6.729719 38.004677
-8.480601 1.727398 33.404877
-15.056286 -2.377396 30.161446
1.285879 -7.696281 4.385763
-0.828779 -19.649546 -21.073490
2.251373 -1.294229 9.116008
0.514221 -4.942390 7.133473
2.263380 -6.811683 7.211546
-6.334394 0.626268 6.373397
-8.090980 -0.463790 12.992600
-0.463697 -8.560977 4.227133
-5.521976 -0.268301 6.020659
-3.482993 -0.681831 5.841136
-4.660122 -6.606596 4.977487
-3.200587 0.415538 6.260239
-7.691377 -0.906833 13.350327
-11.497486 -9.843119 3.178207
-7.718200 0.029767 15.605455
-2.604771 -7.916374 5.918344
-7.739437 -1.173193 16.131170
-7.342524 -1.968163 6.073799
1.943814 -5.160193 10.648143
1.210446 1.026559 29.742897
-1.646455 1.135370 33.062664
-0.027090 2.746448 29.888899
-2.064635 2.919643 32.520176
0.017413 1.280365 31.838114
0.952641 1.676958 32.875900
0.833699 2.119268 31.732382
-1.147443 -0.910932 33.099926
-0.418147 2.108361 32.128761
0.825096 -1.173743 32.985371
0.533028 -1.271044 33.372795
-11.295516 -3.594042 38.228157
-8.093476 -0.364262 28.795372
-18.504990 -8.164824 16.805874
-14.290728 -7.518342 16.122362
-14.246082 -7.388528 16.420938
-8.079470 1.588127 24.293188
-8.712753 1.919591 28.833548
-8.660681 -0.280642 29.458700
-8.613951 0.125997 26.798445
-8.643024 2.816862 29.504496
-23.360817 -12.278457 12.867979
-8.625323 2.757157 29.129728
-8.380099 -0.062792 30.548649
-8.460748 0.289414 30.742334
-7.791278 2.771321 29.287291
-8.718584 2.683395 28.894075
-8.379144 -0.008807 30.533958
-7.994755 0.685600 10.145290
-7.416158 -1.097806 10.300992
-7.898428 0.022504 10.813601
-5.873531 0.722952 5.518922
-8.165548 -0.046872 4.561366
-12.639190 -3.011139 5.890545
-12.748616 -5.373046 3.230804
-14.054432 -0.489851 4.564416
-13.766107 -0.512623 3.103210
-6.626550 0.024807 6.139717
-8.107284 0.274503 4.376989
-8.090211 0.207815 4.725978
-13.300972 -5.823858 2.660114
-7.184031 0.354355 5.815958
-7.099545 -0.019338 5.819241
-12.844878 -2.364365 2.821913
-13.848165 -6.279687 2.514473
-11.542979 -4.423297 4.874946
-5.964531 -0.132326 6.102864
-13.629648 -0.144707 2.883342
-5.783127 0.362887 5.895778
-5.796977 0.369545 6.237213
-6.953550 0.131558 5.357000
-13.926803 -0.283947 3.946193
-11.501513 -0.497817 2.854176
-15.800508 -2.664926 37.489960
-4.233900 0.909386 33.461994
-6.869531 0.607325 33.588345
-4.443610 2.910407 31.217537
-1.927479 0.350057 32.868393
-1.764428 0.157434 32.854206
-8.237219 2.836207 30.304750
-4.416493 1.989657 31.965691
-17.921007 -5.195323 37.800892
-7.476140 2.497849 32.865494
-8.410526 2.400627 24.826874
-8.388634 2.817809 29.419834
-8.535442 -0.131133 34.014835
-8.452007 0.450824 30.765129
-7.040831 0.851457 33.075676
-8.139152 -0.211475 24.984753
-8.281705 0.590937 33.249050
-7.821927 1.222757 13.732061
-4.061827 -1.280652 6.474398
1.530458 -0.158314 12.487090
1.964644 -0.023299 14.972973
0.163849 -7.998662 4.009831
-7.743245 -1.427129 12.941554
-3.795293 -6.256815 5.543262
0.087896 0.271225 13.042117
2.039811 -1.991923 3.517022
1.729680 0.247898 16.153627
-8.434856 2.511969 26.570639
-20.770390 -10.233403 14.740094
-8.614078 2.740140 29.354235
-3.804679 -1.813698 8.378067
